# .PCD v0.7 - Point Cloud Data file format
VERSION 0.7
FIELDS x y z rgb normal_x normal_y normal_z curvature
SIZE 4 4 4 4 4 4 4 4
TYPE F F F F F F F F
COUNT 1 1 1 1 1 1 1 1
WIDTH 547
HEIGHT 1
VIEWPOINT 0 0 0 1 0 0 0
POINTS 547
DATA ascii
0.24933186 -0.012275977 0.098898396 1.558178e-38 0.016656896 0.99985564 -0.0033292212 0
0.25583211 -0.012287685 0.099292859 1.558214e-38 -0.019035509 0.99963802 -0.01901437 0
0.26051137 -0.012176904 0.099839918 1.5766532e-38 -0.011198077 0.99938422 -0.033251371 0
0.26736683 -0.012216839 0.098612145 1.6042757e-38 -0.026622612 0.99964553 -1.104135e-05 0
0.2725465 -0.012119474 0.099481091 1.6227148e-38 -0.012496245 0.99984378 -0.012496266 0
0.2779007 -0.012056737 0.098346807 1.6227147e-38 -0.011105642 0.99969137 -0.022217348 0
0.37523612 -0.013306455 0.09914317 1.9546915e-38 0.17654523 0.94441074 -0.27734476 0
0.38141492 -0.013489762 0.099468358 1.9639111e-38 0.07191205 0.98847938 -0.13318118 0
0.38688558 -0.01426036 0.099148929 1.9639112e-38 0.1804155 0.97789896 -0.10565855 0
0.39258569 -0.015246187 0.099557593 1.9639111e-38 0.16289933 0.98405576 -0.07140097 0
-0.37356731 -0.0075161974 0.099905014 8.6652962e-39 0.68502659 0.71036178 -0.16163166 0
-0.3694239 -0.008905055 0.098464064 1.1432248e-38 0.058032267 0.99707061 -0.04982397 0
-0.36343655 -0.0090442011 0.098659895 1.6226785e-38 0.011067416 0.99869198 -0.049917888 0
-0.35793862 -0.0090586683 0.099457659 1.8716067e-38 -0.022172654 0.9996919 0.011150266 0
-0.35172504 -0.0092506483 0.098633021 1.936144e-38 0.041569185 0.99905777 -0.012477001 0
-0.34539655 -0.0091230385 0.098818675 1.9361438e-38 -0.054074917 0.99853688 -6.8670843e-06 0
-0.33889425 -0.0087780729 0.099342093 1.9453995e-38 -0.054021377 0.99846196 0.012469239 0
-0.33268133 -0.0086015183 0.098871864 1.9914975e-38 -1.5755582e-05 0.99981928 -0.019010978 0
-0.32710323 -0.0085970955 0.098728932 1.9914975e-38 -0.014798933 0.99988359 -0.0037028086 0
-0.32055721 -0.0083857104 0.099184684 2.0375593e-38 -0.033288244 0.99941117 0.0083226673 0
-0.31496516 -0.0083194105 0.098436438 2.0467787e-38 -0.016628293 0.99985313 0.0041393358 0
-0.30849648 -0.0083203651 0.099661373 2.0559984e-38 0.015157958 0.99981153 -0.012126689 0
-0.30308762 -0.0083541013 0.099280059 2.0652539e-38 -0.033245124 0.99920183 0.022147138 0
-0.29738125 -0.0082226954 0.099236816 2.065254e-38 -0.022208173 0.99973792 -0.00555663 0
-0.29188272 -0.008012074 0.098314859 2.065254e-38 -0.048071954 0.99850994 0.025828568 0
-0.28559643 -0.0076890364 0.099105336 2.1021322e-38 -0.011095363 0.99993163 0.0036847598 0
-0.27794063 -0.0076482841 0.099550016 2.1205712e-38 -0.022207705 0.9995082 -0.022138448 0
-0.27305445 -0.0075819804 0.098603286 1.9085211e-38 0.016624961 0.99961555 -0.022191165 0
-0.26730052 -0.007477338 0.099167407 1.6133869e-38 -0.060935594 0.9980458 0.013837547 0
-0.2604706 -0.0070838761 0.098585859 1.9268884e-38 -0.044337962 0.99900973 -0.0037131235 0
-0.25462386 -0.00681129 0.099210031 1.9268884e-38 -0.04280499 0.99907219 0.0047473302 0
-0.24868535 -0.0065455823 0.099437512 1.9638025e-38 -0.016688926 0.9989962 -0.041570902 0
-0.24314126 -0.0064444006 0.099290542 1.9822418e-38 -0.029076966 0.99949908 -0.01249422 0
-0.23690408 -0.0063826446 0.099169403 1.9822776e-38 -0.0091076102 0.9990629 -0.042312831 0
-0.23079495 -0.006344209 0.099253319 1.9914971e-38 0.022129761 0.99877173 -0.044332828 0
-0.22446582 -0.0064298692 0.099031776 1.9822776e-38 -0.0074013956 0.99980134 -0.018503468 0
-0.21931705 -0.0065291733 0.098758757 1.9822416e-38 0.066359423 0.99638093 -0.053118359 0
-0.21304372 -0.0067507112 0.098922528 1.9361797e-38 0.025772056 0.99884409 -0.040573496 0
-0.20697862 -0.0067863422 0.098429002 1.9084853e-38 -0.0041680476 0.99894559 -0.045719482 0
-0.20108885 -0.0068476903 0.098838441 1.8623875e-38 0.021988763 0.99756092 -0.066248097 0
-0.19447564 -0.0069292081 0.098716676 1.8255451e-38 -0.028470773 0.99918818 0.028502239 0
-0.18983112 -0.0064822379 0.09892609 1.7609723e-38 -0.3756761 0.91987884 -0.11265161 0
-0.12741309 -0.0062014959 0.096272521 1.1801043e-38 0.12343606 0.7981562 -0.58966959 0
-0.11490195 -0.0062413774 0.097258091 1.465946e-38 0.30663961 0.93966317 -0.15167473 0
-0.11162503 -0.0067368955 0.09861441 1.5581057e-38 0.092519596 0.99568903 -0.0065941983 0
-0.10513887 -0.0071103997 0.09907645 1.6503015e-38 0.040483549 0.99863547 -0.032990787 0
-0.098989606 -0.0071376269 0.099140808 1.6503015e-38 -0.024192747 0.99933612 -0.027241576 0
-0.093557619 -0.0069552488 0.099156626 1.6042037e-38 -0.012376928 0.99992341 -8.2228798e-05 0
-0.089037456 -0.0067474954 0.099295072 1.3921179e-38 -0.13203685 0.99027568 -0.043822393 0
0.034434274 -0.0062326016 0.096279263 1.3458382e-38 0.263432 0.79029495 -0.55320662 0
0.03983032 -0.0072221979 0.098546885 1.4290317e-38 0.37250274 0.91791219 -0.13667083 0
0.046258956 -0.0085962564 0.099915393 1.512008e-38 0.057364505 0.99813825 0.020718249 0
0.051872846 -0.0086054206 0.098988377 1.5304472e-38 -0.0055453717 0.99984294 0.016831355 0
0.057071142 -0.0084936265 0.098713487 1.5673254e-38 -0.012493175 0.99988711 0.008345684 0
0.062122378 -0.0085068019 0.099551521 1.5949841e-38 0.033233117 0.99846429 -0.04432299 0
0.068944715 -0.0083840806 0.099246621 1.6042396e-38 5.7189911e-05 0.9998287 0.01851071 0
0.07485 -0.0085284915 0.098326273 1.595056e-38 0.019975392 0.99980044 1.4721428e-05 0
0.080079593 -0.00857931 0.099004008 1.5858366e-38 -3.0666961e-06 0.99993837 0.011099204 0
0.087237678 -0.0085820034 0.099097781 1.5674335e-38 0.011109633 0.99895388 0.044359099 0
0.093137622 -0.0087937927 0.09983097 1.5581782e-38 0.066473059 0.99760747 0.018993368 0
0.099056371 -0.0089708641 0.098935626 1.5582503e-38 0.033279762 0.99831617 0.047510747 0
0.10564488 -0.009218581 0.098717175 1.5490666e-38 0.053970065 0.99749571 0.045710798 0
0.11029357 -0.0093783969 0.09878549 1.5306275e-38 0.022202022 0.99899858 0.038844179 0
0.11661186 -0.0096398126 0.098420478 1.5306277e-38 0.047539882 0.9983151 0.033269364 0
0.12211864 -0.0097974278 0.098833799 1.5213722e-38 0.011119851 0.99840122 0.055419687 0
0.12878671 -0.0098563796 0.099351615 1.5305916e-38 0.011085982 0.99878466 0.048021641 0
0.13544707 -0.0099720387 0.099319898 1.5121525e-38 2.300216e-05 0.99978435 0.020766474 0
0.14167827 -0.01005257 0.098856464 1.502933e-38 0.012489082 0.9990555 0.041618612 0
0.14686796 -0.010108052 0.098128371 1.502933e-38 0.038037099 0.99917358 0.014330371 0
0.15274329 -0.010214755 0.098784052 1.5121524e-38 -0.02209828 0.99974006 -0.0056179515 0
0.15824313 -0.01025432 0.098561659 1.5121164e-38 0.047898281 0.99860764 -0.022100434 0
0.16459593 -0.010509935 0.099372759 1.5028967e-38 0.026087115 0.99853235 -0.047461256 0
0.17066184 -0.010625543 0.098810762 1.5120802e-38 0.029504463 0.99955815 -0.0035947438 0
0.17690384 -0.010736062 0.099689722 1.4937131e-38 0.0095215002 0.9999547 2.6646189e-06 0
0.18294421 -0.010856358 0.099058867 1.5028967e-38 0.023295004 0.99959034 -0.016626621 0
0.18948789 -0.011055765 0.099125765 1.5121162e-38 0.019902505 0.99953306 -0.023187013 0
0.19511002 -0.011208091 0.09851253 1.5029327e-38 0.016545812 0.99833202 -0.055310506 0
0.20109409 -0.011384143 0.098856866 1.4937131e-38 0.041492175 0.99789804 -0.049777985 0
0.20712325 -0.011695703 0.099373184 1.4845294e-38 0.085076936 0.99314016 -0.080215514 0
0.21244498 -0.011933789 0.0985322 1.5029327e-38 -8.5582673e-05 0.99902004 -0.04426052 0
0.21695748 -0.011919659 0.10112101 1.4844936e-38 0.016585981 0.99764788 -0.066509776 0
0.28151181 -0.011989222 0.097823367 1.622715e-38 0 0.9994449 -0.033314705 0
0.28515831 -0.011922412 0.098952904 1.6134953e-38 -0.0095191542 0.99990964 0.0094928332 0
0.2908338 -0.011880909 0.099223547 1.6042756e-38 -2.5923209e-06 0.9999547 -0.0095199449 0
0.29672652 -0.011840281 0.098369673 1.6227148e-38 -0.019994311 0.99971128 -0.013329433 0
0.30294111 -0.011784413 0.098722018 1.6319343e-38 -0.013861207 0.99980807 0.013845903 0
0.30896696 -0.011642867 0.099066317 1.6411538e-38 -0.020814331 0.99977469 0.0041582547 0
0.31464913 -0.011474126 0.098934092 1.6595929e-38 -0.052192345 0.99750918 0.047448572 0
0.32096824 -0.010917478 0.098041773 1.6780321e-38 -0.10140763 0.9910627 0.08666753 0
0.32583365 -0.010571475 0.098632455 1.6964712e-38 -0.095289223 0.98578203 0.13839728 0
0.33254537 -0.0099296859 0.098818757 1.7425693e-38 -0.079792857 0.99048358 0.11214026 0
0.3382256 -0.0093194246 0.098921768 1.7887391e-38 -0.20765735 0.95623541 0.20613654 0
0.34467608 -0.0073863287 0.098874107 1.8348369e-38 -0.26789451 0.93173087 0.24517369 0
0.34978446 -0.0062801763 0.10035238 1.8900823e-38 -0.24778447 0.93082595 0.26863703 0
0.35770106 -0.007264046 0.099070333 1.9361801e-38 0.45632231 0.87962729 -0.13425992 0
0.3621957 -0.0082027167 0.09912727 1.9453995e-38 0.17280084 0.98171628 -0.079831615 0
0.36867461 -0.0097200768 0.099389158 1.9362523e-38 0.41002566 0.7982673 -0.44118956 0
0.37244359 -0.011917995 0.10010535 1.9639111e-38 0.55410945 0.69263607 -0.46175539 0
-0.37517187 -0.002478844 0.097918049 4.8856299e-39 0.98041314 0.064367466 0.18613653 0
-0.18694825 -0.0047643087 0.099153824 1.7701915e-38 -0.61106759 0.77541107 -0.15916677 0
-0.18305886 -0.0018650988 0.097933799 1.7149103e-38 -0.64012074 0.6951046 -0.32722324 0
-0.17559437 -0.0019447876 0.097558804 1.1523399e-38 0.95716131 0.26346692 0.12011428 0
-0.12781471 -0.0045078327 0.097404309 1.0233718e-38 0.60498559 0.056579851 -0.79422355 0
-0.12319805 -0.0019803229 0.1000525 9.0348116e-39 0.91022873 0.41406855 0.0055587706 0
-0.11762569 -0.0047982028 0.099051982 1.2722996e-38 0.33786649 0.93586969 -0.099970855 0
-0.085769847 -0.0047661704 0.099379659 1.0971993e-38 -0.64592224 0.76174134 -0.050344512 0
-0.082069583 -0.0013743283 0.098973081 9.2227818e-39 -0.54659855 0.83110011 -0.10248255 0
-0.0091915047 -0.00023156569 0.097869121 1.548917e-38 0.13970602 0.97186375 -0.18963924 0
-0.0030684138 -0.00054155843 0.098682083 1.3276126e-38 0.031327594 0.95516181 -0.29442236 0
0.0032803765 -0.00096144708 0.099062659 1.4843461e-38 0.096763574 0.94352114 -0.31686682 0
0.0081362156 -0.0014332192 0.098594368 1.3277585e-38 0.076335177 0.93809295 -0.33786753 0
0.01477289 -0.0015078729 0.099118717 1.5765046e-38 0.03110124 0.91176677 -0.40952918 0
0.021146717 -0.002104027 0.09900526 1.4013685e-38 0.14067082 0.86674243 -0.4785074 0
0.02697292 -0.0030344725 0.099050075 1.0879765e-38 0.140283 0.8599748 -0.49067703 0
0.032785099 -0.0042165066 0.098881371 1.3737475e-38 0.28528568 0.85354102 -0.43598151 0
0.036799487 -0.0052475329 0.10032071 1.530301e-38 0.41218528 0.88193274 -0.22868739 0
0.3511858 -0.0056206975 0.098729193 1.8993019e-38 -0.096716724 0.9780882 0.18436199 0
0.3548564 -0.0057950593 0.098537385 1.917777e-38 0.18370405 0.981462 -0.054637413 0
-0.37578854 0.0030892214 0.099969886 6.5447911e-39 0.94523048 0.10377873 0.30946615 0
-0.18107367 0.0025072098 0.099349655 1.7057626e-38 -0.91326362 0.28313276 -0.2928915 0
-0.17882085 0.0055235154 0.096848451 1.8254735e-38 -0.73603213 0.44746038 -0.5079723 0
-0.12355655 0.0028843423 0.098556019 9.2195644e-39 0.89468169 0.092509292 -0.43702021 0
-0.078738838 1.491209e-05 0.098663881 5.3462227e-39 -0.099449091 0.99449033 -0.033149611 0
-0.074738182 0.00059366657 0.099295259 1.6502974e-38 -0.094609022 0.99495393 -0.033405341 0
-0.069259614 0.0009959609 0.099007271 1.8163241e-38 -0.069710091 0.99068516 -0.11697625 0
-0.063655168 0.0014985665 0.09925925 1.8255803e-38 -0.10665292 0.98319173 -0.14818613 0
-0.056912128 0.0017823407 0.098560959 1.9731283e-38 0.0041631842 0.98778892 -0.15574293 0
-0.05105583 0.0015589367 0.098965205 1.9730931e-38 0.045474034 0.98526335 -0.16488907 0
-0.044680286 0.001446543 0.099179313 1.844055e-38 0.059572529 0.98756588 -0.14548157 0
-0.039433327 0.0010743581 0.099505037 1.8255437e-38 0.11710076 0.97779459 -0.17379619 0
-0.033183265 0.00042299935 0.098935217 1.5951638e-38 0.065618552 0.99422288 -0.084941566 0
-0.027102506 0.00043228865 0.099218659 1.6042373e-38 -0.0071232147 0.9992106 -0.039083757 0
-0.02072423 0.00039895487 0.098425187 1.5396278e-38 -0.005437261 0.99995846 0.0073140627 0
-0.015130964 0.00033438305 0.099005535 1.2815516e-38 0.051871195 0.99535269 -0.081131995 0
-0.010550889 4.6126759e-05 0.099140085 1.7332379e-38 0.055249691 0.98863828 -0.1397918 0
-0.37663507 0.0081222681 0.098951764 9.6805229e-39 0.91808999 0.38079032 0.11004364 0
-0.18029195 0.0069568329 0.10066993 1.7332424e-38 -0.83460009 0.39887932 -0.37991843 0
-0.17828993 0.009374545 0.098863848 1.410558e-38 -0.80540663 0.37401867 -0.45981538 0
-0.1264109 0.01008467 0.096517846 8.4809358e-39 0.7676844 0.30389005 -0.56419104 0
-0.12436089 0.0093000848 0.099347979 9.2184994e-39 0.8511849 0.27565444 -0.4466531 0
-0.37993184 0.015938779 0.10056715 1.1156013e-38 0.64796096 0.38964248 0.65446573 0
-0.37756279 0.014277277 0.098006226 1.1248209e-38 0.87421221 0.17283981 0.45373946 0
-0.17580834 0.013971345 0.098971426 8.9422754e-39 -0.71602726 0.51075423 -0.47585177 0
-0.17212182 0.016951084 0.097092174 1.1708143e-38 -0.57809383 0.52891898 -0.62133104 0
-0.12790014 0.015345675 0.098430112 9.4947346e-39 0.71893263 0.4331111 -0.54364568 0
-0.12490129 0.012631431 0.10057559 6.9132527e-39 0.80939746 0.37784413 -0.44956604 0
-0.38404498 0.019244768 0.10037351 1.1524794e-38 0.15001006 0.40912125 0.90006489 0
-0.38017741 0.018668385 0.098270528 1.1524796e-38 0.53571844 0.61255646 0.58118874 0
-0.37650582 0.019137038 0.097302102 1.1524437e-38 0.058737945 0.22723702 0.97206646 0
-0.17096306 0.020625567 0.099771462 1.1062779e-38 -0.59527934 0.59088498 -0.54451585 0
-0.16605996 0.022388915 0.097904876 1.1339006e-38 -0.38484636 0.68048251 -0.62356788 0
-0.16032712 0.023305411 0.096546382 1.2353517e-38 -0.15307817 0.65661573 -0.73852754 0
-0.15060531 0.0237315 0.09608981 1.309001e-38 -0.051987078 0.77981293 -0.62385029 0
-0.14745823 0.023637751 0.096377611 1.1523044e-38 0.10329287 0.7937752 -0.5993759 0
-0.14050737 0.022857603 0.097131982 9.2181519e-39 0.21533982 0.69872892 -0.68220717 0
-0.13443618 0.021813732 0.09890876 9.2181505e-39 0.39856684 0.69709539 -0.59598875 0
-0.13019155 0.019368643 0.09973947 7.374598e-39 0.60775685 0.5928809 -0.52832174 0
-0.1642832 0.025222586 0.10057104 1.1707791e-38 -0.29400778 0.82986736 -0.47421458 0
-0.15912558 0.025146065 0.098507598 1.1246813e-38 -0.13620213 0.81947386 -0.55669713 0
-0.15336479 0.02560729 0.099095121 1.0785836e-38 0.0077583729 0.87886739 -0.47700307 0
-0.1467737 0.025533248 0.099488847 1.0508889e-38 0.078730218 0.87213987 -0.48288047 0
-0.14122435 0.025116175 0.10023611 9.4021844e-39 0.18359903 0.8597182 -0.47662979 0
-0.13680384 0.024697226 0.1017652 9.1263136e-39 0.26832777 0.8944273 -0.35777104 0
0.22662675 -0.01210522 0.10296168 1.4936411e-38 0.033239067 0.99846298 -0.044349521 0
0.23093857 -0.012098937 0.1045017 1.5028605e-38 0.009440653 0.99923629 -0.037918624 0
0.23708144 -0.012107024 0.10438222 1.5028605e-38 0.0046156328 0.99970895 -0.023679348 0
0.24281873 -0.012203157 0.10527438 1.5305191e-38 7.904453e-06 1 1.3190792e-05 0
0.2484051 -0.012234122 0.10538029 1.5305193e-38 0.012456663 0.99978411 -0.016634284 0
0.25455093 -0.012249757 0.10535557 1.5489585e-38 -0.014813974 0.99986285 -0.0074038715 0
0.26095051 -0.012116256 0.1044355 1.5490305e-38 -0.011108215 0.99992287 -0.0055587138 0
0.26619112 -0.012083353 0.10537821 1.5858367e-38 0.0099215461 0.99928087 -0.036596831 0
0.27234724 -0.012090147 0.10417692 1.6042758e-38 -0.016660981 0.99984574 -0.0055577713 0
0.27713239 -0.012068512 0.10352528 1.622715e-38 -0.016633822 0.99982673 -0.0083537744 0
0.28665903 -0.01204301 0.10387192 1.5950563e-38 -0.011122161 0.99987632 -0.011122026 0
0.29730925 -0.012033247 0.10790332 1.6503734e-38 -0.033241168 0.99723381 0.066482171 0
0.38232628 -0.01314348 0.10325571 1.9639111e-38 0.22024183 0.90902483 -0.35378993 0
0.38670799 -0.013631533 0.10478926 1.9546915e-38 0.27386037 0.93452704 -0.22728758 0
0.39333278 -0.014707901 0.10565951 1.9639111e-38 0.14111748 0.9833678 -0.11433982 0
0.39835593 -0.016308244 0.10484011 1.9639471e-38 0.19626147 0.96976519 -0.1450417 0
0.40278172 -0.016578034 0.10767052 1.973131e-38 0 0.99778521 0.066518933 0
-0.3740049 -0.0069633164 0.10566744 1.1616282e-38 0.51182866 0.8454017 0.15273263 0
-0.36911368 -0.008749851 0.1047482 1.2630433e-38 0.16487853 0.98547548 0.040658787 0
-0.36317194 -0.009122638 0.10535556 1.6687762e-38 0.039779115 0.99699777 0.066431656 0
-0.35710242 -0.0092576463 0.10470861 1.9268882e-38 0.0092721628 0.99940068 0.033349715 0
-0.35183564 -0.0091831889 0.10441182 1.9545831e-38 0.0073698228 0.99997282 -1.4399557e-05 0
-0.34573647 -0.0091778981 0.1051484 1.9638385e-38 -0.024888277 0.99937874 0.024952305 0
-0.33880654 -0.0088889757 0.10456683 1.9822776e-38 -0.044368368 0.99857718 0.029583596 0
-0.33287376 -0.0086674104 0.10488546 1.9914972e-38 -0.029959776 0.9992792 0.023309106 0
-0.32659516 -0.0085415645 0.10554022 2.0375949e-38 -0.016659748 0.99986118 -3.1314989e-06 0
-0.32104698 -0.0084368307 0.10494745 2.0559984e-38 -0.024958132 0.999654 0.0083040753 0
-0.31562907 -0.0083329901 0.10535913 2.0744736e-38 -2.1642797e-06 0.99997252 -0.0074065109 0
-0.30960396 -0.0083255488 0.10497613 2.1021322e-38 -0.011096448 0.99987698 0.011084089 0
-0.30248782 -0.0083113099 0.1046792 2.1205354e-38 -0.011083105 0.99969202 -0.022203052 0
-0.29696089 -0.0082120858 0.10513467 2.1205714e-38 0.012120321 0.99992198 -0.0030238105 0
-0.2908425 -0.0081288349 0.10532846 2.1205714e-38 -0.076259658 0.99695128 0.016508732 0
-0.28451255 -0.0076876166 0.10446186 2.1205714e-38 -0.020763131 0.99977559 -0.0041873846 0
-0.27911213 -0.0076790252 0.10436306 2.1297909e-38 -0.033300612 0.99938387 0.011094041 0
-0.27306658 -0.0075540156 0.10534246 2.1297908e-38 -0.038733907 0.99922752 0.0066355099 0
-0.26721302 -0.0073776841 0.10486802 1.696399e-38 -0.05527664 0.99693972 -0.05527956 0
-0.26120341 -0.0070482106 0.10529862 1.9637666e-38 -0.059842266 0.99820781 -6.4005435e-05 0
-0.2546069 -0.0067548426 0.10526113 1.9730221e-38 -0.052247729 0.99858856 -0.0095410515 0
-0.24969351 -0.0065162797 0.10379152 1.9822418e-38 -0.045693688 0.99864364 -0.024958692 0
-0.24305347 -0.0062801032 0.10476514 2.0191199e-38 -0.023780281 0.99931103 -0.0284955 0
-0.23785296 -0.006153374 0.10545665 2.0191919e-38 -0.014278566 0.99989802 -2.640184e-06 0
-0.23135072 -0.0061882134 0.10482597 2.0191919e-38 0.0060353284 0.99942768 -0.033284232 0
-0.22458339 -0.0061944067 0.10510425 2.0007888e-38 0.0099748895 0.99816185 -0.059777692 0
-0.21845907 -0.0062526837 0.10476336 1.9916053e-38 0.022188723 0.99900097 -0.038791329 0
-0.21304896 -0.0064286459 0.10478514 1.9639107e-38 0.015308151 0.9991464 -0.038369052 0
-0.20706269 -0.006380965 0.10555677 1.9362521e-38 -2.21954e-05 0.99964619 -0.026601356 0
-0.201858 -0.0065309182 0.10440571 1.8901183e-38 0.023718581 0.99835199 -0.052256528 0
-0.19515637 -0.0066581992 0.10501353 1.8070702e-38 0.029131135 0.99876416 -0.040268131 0
-0.1907829 -0.0065143281 0.10523526 1.7425333e-38 -0.23967747 0.96929413 -0.054988205 0
-0.10989719 -0.0065961438 0.10451985 1.4751298e-38 0.17063853 0.98353189 -0.059562001 0
-0.10418909 -0.0069914139 0.1052265 1.6226428e-38 0.018456686 0.99982303 -0.0036448049 0
-0.098826542 -0.0069269938 0.10602616 1.6503015e-38 -0.046593033 0.99891394 3.6656272e-06 0
-0.092941709 -0.0069089038 0.10442712 1.5488863e-38 -0.03621652 0.99920923 -0.016406881 0
-0.088710912 -0.006234732 0.10501001 1.2907025e-38 -0.35380262 0.93273342 -0.069513358 0
0.04102578 -0.0073360023 0.1037717 1.4290676e-38 0.44755906 0.89346516 -0.037562739 0
0.044575267 -0.0083465232 0.10526045 1.5212276e-38 0.14330713 0.98958892 -0.013298427 0
0.05088624 -0.0083851758 0.10520482 1.5488863e-38 -0.047480419 0.9969666 -0.061671749 0
0.056487225 -0.0082597053 0.10504897 1.576545e-38 0.0029515796 0.99868196 -0.051240299 0
0.063447818 -0.0083988626 0.10432515 1.5949841e-38 0.025840109 0.99949533 -0.018473472 0
0.069177531 -0.0084432727 0.10514087 1.6134232e-38 0.018531647 0.99976665 0.011100505 0
0.074725918 -0.0085819531 0.10482792 1.6318984e-38 0.012470706 0.99992222 6.8668483e-06 0
0.081158251 -0.0086576957 0.10452312 1.6226788e-38 0.012472845 0.99984407 0.01250033 0
0.087246351 -0.0087859426 0.10586281 1.6134954e-38 0.028490214 0.99959409 6.282299e-05 0
0.092923865 -0.0089141196 0.10503127 1.5766172e-38 0.019999364 0.99971133 0.013316926 0
0.099018387 -0.009199637 0.10526083 1.5582502e-38 0.043233197 0.99892658 0.016630391 0
0.10442568 -0.0093714949 0.10514742 1.5305916e-38 0.028554562 0.9994902 0.014279922 0
0.11069971 -0.009645218 0.10471642 1.5306277e-38 0.041626386 0.99874938 0.027690837 0
0.11622542 -0.0097842338 0.10455424 1.502969e-38 0.028515086 0.99846244 0.047535621 0
0.12297477 -0.010045967 0.10488141 1.4937134e-38 0.023712656 0.99899513 0.038031906 0
0.129402 -0.010150868 0.10460665 1.502933e-38 0.0067194835 0.99820632 0.059489127 0
0.135463 -0.010229926 0.10591955 1.4844578e-38 7.7911027e-05 0.99838132 0.056874014 0
0.14023253 -0.010203622 0.10437816 1.5121525e-38 0.029116614 0.99902165 0.033284701 0
0.14752007 -0.010288107 0.10486586 1.5120805e-38 -0.012088763 0.99988574 0.0090682898 0
0.15330268 -0.010081573 0.10497379 1.5213359e-38 -0.033014603 0.99940723 -0.0097609842 0
0.15855981 -0.010141497 0.10461315 1.5121525e-38 0.026610175 0.99929184 -0.026602944 0
0.16352558 -0.010219626 0.10501876 1.5121525e-38 0.033234984 0.9994325 0.0054877251 0
0.17098404 -0.010446608 0.10559813 1.5121524e-38 0.05164694 0.9980154 -0.036025349 0
0.17696317 -0.010738291 0.10386632 1.5121162e-38 0.027631205 0.99948144 -0.016536258 0
0.1823882 -0.010701139 0.10563531 1.5121522e-38 0.011078474 0.99895513 -0.044340283 0
0.18890662 -0.010984834 0.10531351 1.5028607e-38 0.05539421 0.99845773 0.0037108634 0
0.19554065 -0.011004901 0.1046927 1.5028967e-38 6.951871e-06 0.99968809 -0.02497372 0
0.20149691 -0.011218241 0.10469923 1.5121522e-38 0.038803637 0.99900085 -0.022173502 0
0.20710495 -0.011283811 0.10520387 1.4844936e-38 0.020773333 0.99809086 -0.058164127 0
0.21349919 -0.011601339 0.10475706 1.475274e-38 0.033123411 0.99580914 -0.085246459 0
0.21973377 -0.011639492 0.10498101 1.475274e-38 0.025758237 0.99637419 -0.081086621 0
0.22474696 -0.011832169 0.10570171 1.4844215e-38 0.051955272 0.99540907 -0.08038225 0
0.23102611 -0.011948516 0.10657252 1.4936411e-38 0.033004794 0.99450946 -0.099305429 0
0.23692235 -0.011955934 0.10743176 1.5305192e-38 0.033131577 0.99724466 -0.066372946 0
0.27245858 -0.011961733 0.10779463 1.6134954e-38 -7.3256597e-05 0.99779004 -0.066445835 0
0.27978775 -0.011967865 0.10498752 1.6042758e-38 -0.013307083 0.99991155 -1.4753491e-05 0
0.28454652 -0.011969741 0.10502855 1.6042758e-38 -2.2690149e-06 0.99999124 0.0041790213 0
0.29163429 -0.011936883 0.10391369 1.6134953e-38 -0.0055443752 0.9997381 0.022202034 0
0.29755592 -0.01190097 0.10395004 1.6227147e-38 2.6870903e-06 0.99971676 0.0237986 0
0.30308706 -0.011933054 0.10591342 1.6227147e-38 -0.023793511 0.99961573 0.014219528 0
0.30952936 -0.011720832 0.10482531 1.6411538e-38 -0.018973976 0.99971759 0.014307922 0
0.31440356 -0.011623718 0.10507958 1.6503735e-38 -0.053119529 0.99831825 -0.023213668 0
0.32075745 -0.011274458 0.10541155 1.6872516e-38 -0.043188542 0.99871379 0.02656276 0
0.32661825 -0.011004931 0.10542868 1.7056909e-38 -0.075676367 0.99393636 0.079771705 0
0.33281156 -0.010593493 0.10444682 1.7518249e-38 -0.040001601 0.99217838 0.11824527 0
0.33841518 -0.010544562 0.1059123 1.7887391e-38 -0.10646091 0.97539842 0.19303912 0
0.34536535 -0.0088012321 0.10488492 1.8348369e-38 -0.23158208 0.93936014 0.25292742 0
0.35130227 -0.0073323376 0.10467234 1.8993379e-38 -0.24035373 0.9170931 0.31807277 0
0.35710064 -0.0070435232 0.10570279 1.9269606e-38 0.22363204 0.9566586 0.18652882 0
0.36251667 -0.0086858328 0.10499379 1.9361803e-38 0.14496087 0.97701174 0.15631524 0
0.36975428 -0.0081626046 0.10584181 1.9270687e-38 -0.096130647 0.98772073 -0.12315297 0
0.37467372 -0.0092628421 0.10468222 1.963911e-38 0.28892353 0.79525375 -0.5330053 0
0.38029483 -0.010477656 0.10638004 1.9639111e-38 0.37590373 0.8192001 -0.43313688 0
-0.37884063 -0.0017887963 0.10612706 9.2188273e-39 0.61022657 0.37600613 0.69731116 0
-0.37675992 -0.0044440818 0.10491812 9.1266331e-39 0.87040746 0.36434704 0.33112261 0
-0.18788821 -0.004616796 0.10513414 1.6411542e-38 -0.59040314 0.79120195 -0.15944825 0
-0.18476754 -0.0014770213 0.1047114 1.5765814e-38 -0.82125193 0.56703168 0.06340538 0
-0.17855343 -0.0011787942 0.10788658 1.0047903e-38 0.34836566 -0.69673276 0.62706053 0
-0.12150253 -0.0015455747 0.10387611 9.4954296e-39 0.72135615 0.65684986 -0.21953039 0
-0.11659808 -0.0042172149 0.10460459 1.1247505e-38 0.42049882 0.88941658 -0.17921752 0
-0.11300561 -0.0056375358 0.10580155 1.2538243e-38 0.41066492 0.90962094 -0.062800907 0
-0.086029664 -0.004484118 0.10496539 1.1616638e-38 -0.62183326 0.78048295 -0.064574599 0
-0.082936056 -0.0014066728 0.10436831 1.3737837e-38 -0.7127825 0.69797707 -0.069059737 0
-0.00040946185 -0.00010546373 0.10251717 1.9914608e-38 0.066482253 0.99723381 -0.033241142 0
0.0029343497 -0.00028108282 0.10250187 1.8899715e-38 0.033296369 0.99889076 -0.03329638 0
0.0088876914 -0.00040824877 0.10304601 1.8439468e-38 -0.0079194577 0.98503953 -0.17214622 0
0.016202362 -9.5256415e-05 0.10408761 1.8716062e-38 -0.049147241 0.98241943 -0.18010156 0
0.019455584 -0.00021078587 0.10316937 1.594908e-38 0.063721016 0.96732229 -0.24541235 0
0.02754584 -0.0013454392 0.10380951 1.5949808e-38 0.22048816 0.93610471 -0.27403098 0
0.033097871 -0.0025973695 0.10584614 1.1431134e-38 0.38170213 0.92413479 -0.01668644 0
0.03718815 -0.0046846257 0.10524426 1.3182875e-38 0.55421579 0.82872957 -0.077795394 0
0.35542139 -0.0058653234 0.10428833 1.9361801e-38 -0.33135933 0.90371352 0.27111432 0
-0.37978157 0.0029017231 0.10589228 9.034792e-39 0.72324687 0.13942216 0.67636937 0
-0.37716874 0.001891539 0.10270076 7.8355285e-39 0.79897511 0.12335852 0.58857578 0
-0.18244067 0.0027918599 0.10488312 1.5766173e-38 -0.913293 0.37677211 -0.15472101 0
-0.12158131 0.0033155459 0.10535574 9.3110412e-39 0.96995384 0.006264037 -0.2432086 0
-0.079875566 0.00048609715 0.10588226 1.4844543e-38 -0.33296788 0.92458069 -0.1851567 0
-0.074592546 0.0013330469 0.10592613 1.668919e-38 -0.13572782 0.98081589 -0.13992238 0
-0.068774298 0.0018273848 0.10448481 1.9546904e-38 -0.098148644 0.98354244 -0.15169442 0
-0.063373148 0.0027350287 0.10613959 2.0191914e-38 -0.079299763 0.98179013 -0.17262621 0
-0.057131998 0.0029862886 0.10530657 2.0100437e-38 -0.03972432 0.97857207 -0.20203643 0
-0.051214293 0.0029830399 0.10495281 2.0192994e-38 0.010614916 0.96450251 -0.26386032 0
-0.045211356 0.0028771567 0.10514573 2.0192276e-38 0.059262224 0.95404762 -0.29373655 0
-0.038921278 0.0021255906 0.10453589 2.0192276e-38 0.065177344 0.9582994 -0.27823398 0
-0.033463273 0.0016378942 0.10463952 2.0192635e-38 0.099827953 0.95693189 -0.27260903 0
-0.02715358 0.0014399564 0.1061937 2.0192635e-38 0.10850237 0.96069008 -0.25554222 0
-0.021355195 0.00098280946 0.1054923 2.0284471e-38 0.017644798 0.9814378 -0.19096698 0
-0.015524702 0.00071622874 0.10547232 2.0284471e-38 0.054559927 0.99171847 -0.11626529 0
-0.008719218 0.00032745054 0.1051021 1.9823493e-38 0.016515533 0.99545449 -0.093795232 0
-0.002540577 0.00030165553 0.10525407 1.9730575e-38 0.046323359 0.99257922 -0.11243003 0
0.002779925 0.0002256974 0.10617105 1.9546544e-38 0.032816965 0.98762441 -0.15336582 0
0.0076285629 0.00026268663 0.10687839 1.9453988e-38 -0.032546055 0.98587137 -0.16431196 0
0.014486414 0.00044609664 0.106806 1.8717145e-38 0.016072687 0.98287755 -0.18355721 0
0.020978982 0.00039506066 0.10634427 1.8809701e-38 0.024072172 0.97715837 -0.21114469 0
0.025324915 9.7473792e-05 0.10644171 1.899265e-38 0.18689157 0.96311921 -0.19357927 0
-0.39238471 0.010271588 0.10748706 1.0602838e-38 0.098890483 0.53054082 0.84187114 0
-0.38593665 0.0095678037 0.10637388 1.0602481e-38 0.37295005 0.48809168 0.78909749 0
-0.38135111 0.0085914638 0.10488351 1.0602481e-38 0.49874067 0.40002221 0.76892138 0
-0.18130931 0.0079338308 0.10552608 1.4474718e-38 -0.91081923 0.3127979 -0.26938045 0
-0.17954278 0.010973116 0.10324504 1.16163e-38 -0.90126222 0.36050647 -0.24033628 0
-0.12184722 0.0089664543 0.10561348 8.2965389e-39 0.93042171 0.21965581 -0.29337129 0
-0.39017493 0.012200638 0.10644595 1.097162e-38 0.078690134 0.26229957 0.96177274 0
-0.38573745 0.014907893 0.10404184 1.0971981e-38 0.35294008 0.38373852 0.85333347 0
-0.38234171 0.013676959 0.1031297 1.1063818e-38 0.50595385 0.40393284 0.76213455 0
-0.18010643 0.012397652 0.10793389 9.2188609e-39 -0.93704343 0.31234375 -0.1561766 0
-0.17827116 0.01489324 0.10499629 1.05096e-38 -0.80167711 0.48259443 -0.3527272 0
-0.12608865 0.016884986 0.10244668 1.133936e-38 0.74443704 0.49629229 -0.44666258 0
-0.12398496 0.014996101 0.10493938 8.1121546e-39 0.85350233 0.38758516 -0.34829789 0
-0.38805863 0.018994782 0.10266501 1.161735e-38 0.53708565 0.41850653 0.73238736 0
-0.1751948 0.019651536 0.10475458 9.6794832e-39 -0.73153758 0.57831287 -0.36111897 0
-0.1720918 0.022816679 0.10416467 1.2168411e-38 -0.59608966 0.68309247 -0.42197371 0
-0.13228408 0.023649706 0.10330912 9.034118e-39 0.42579788 0.79836911 -0.42579684 0
-0.12879388 0.021588644 0.10449535 7.7430232e-39 0.64186859 0.63398182 -0.43136024 0
-0.125176 0.018895168 0.10687397 9.3107006e-39 0.74563032 0.56318712 -0.356168 0
-0.16971309 0.025254272 0.10580304 1.0785836e-38 -0.4915604 0.80187237 -0.33966011 0
-0.16569568 0.026430631 0.10446922 1.1154975e-38 -0.30875155 0.89573097 -0.319904 0
-0.15938109 0.02754458 0.10440438 1.179963e-38 -0.035090886 0.97522497 -0.21841453 0
-0.15298526 0.027542666 0.10541625 1.1799985e-38 0.058818296 0.98640949 -0.15341701 0
-0.147431 0.027014282 0.10468915 1.0878029e-38 0.076019831 0.98049223 -0.18126233 0
-0.14114304 0.02650889 0.10517889 1.0047913e-38 0.14018582 0.97157669 -0.19075309 0
-0.13538136 0.025480056 0.10543963 9.4943772e-39 0.25196105 0.9353072 -0.24842718 0
-0.13183269 0.024930248 0.10777361 7.4664377e-39 0.36297125 0.90742552 -0.21173292 0
0.24455626 -0.012081168 0.1115732 1.5212996e-38 0.056951072 0.99797046 -0.028488619 0
0.24926169 -0.012194079 0.11158287 1.5397388e-38 0.011018027 0.99969482 -0.022109326 0
0.25562769 -0.012137556 0.11157939 1.5489585e-38 -0.016655138 0.99930686 -0.033293985 0
0.26093411 -0.012081904 0.11080085 1.5305914e-38 -0.016662061 0.99986118 -2.3101757e-06 0
0.26566702 -0.01204023 0.11168374 1.5673976e-38 -0.049820658 0.99861884 0.01668041 0
0.2889601 -0.012036365 0.11291459 1.6134954e-38 0.066372409 0.99558496 -0.066372082 0
0.29718882 -0.012067069 0.11007255 1.6042757e-38 0.0066477028 0.99997795 2.3924504e-05 0
0.33455223 -0.012069982 0.11374874 1.7333497e-38 0.065938435 0.98907077 0.13187562 0
0.38893056 -0.01332185 0.10856251 1.9362524e-38 0.40321249 0.82785559 -0.3899678 0
0.39357096 -0.013689714 0.11119055 1.9362524e-38 0.29394755 0.89327574 -0.34007838 0
0.40008467 -0.0148258 0.11141467 1.9362526e-38 0.25396323 0.88832903 -0.38258895 0
0.40500218 -0.01636293 0.11060592 1.9362527e-38 0.1978322 0.94289345 -0.26798201 0
-0.38544303 -0.0063022082 0.11355885 1.1523364e-38 0.38075021 0.51920843 0.76514828 0
-0.3806988 -0.0072122416 0.11250103 1.2538236e-38 0.24108163 0.77177471 0.58842444 0
-0.3753857 -0.008107271 0.11062591 1.2999575e-38 0.29743662 0.91077369 0.286396 0
-0.36867955 -0.0096982904 0.11138659 1.6503371e-38 0.079114206 0.99000853 0.11672164 0
-0.362353 -0.0096261641 0.11048993 1.8807904e-38 -0.028036682 0.99427307 0.10312591 0
-0.35692653 -0.0094844941 0.11177599 1.9822058e-38 -0.038001753 0.99887222 0.028464019 0
-0.35155559 -0.0093206409 0.11030923 1.9730221e-38 -0.0066427332 0.99942321 0.033303048 0
-0.34559688 -0.0092446227 0.11100928 2.0191559e-38 -0.026634114 0.99963975 0.0032984246 0
-0.3394385 -0.0089906491 0.11108498 2.037595e-38 -0.0332954 0.99941087 -0.0083237784 0
-0.33274242 -0.0087705767 0.11052445 2.037595e-38 -0.033287682 0.99926466 0.019029807 0
-0.32708496 -0.0086388625 0.11092978 2.0560342e-38 -0.028541122 0.99954736 0.0095119551 0
-0.32097456 -0.0085123265 0.11109032 2.0744375e-38 -0.019007552 0.99953717 0.023752317 0
-0.31439483 -0.0083756186 0.11187094 2.1020962e-38 -0.014811868 0.99989027 -4.0987461e-06 0
-0.30852941 -0.0082953777 0.11062177 2.1113158e-38 -0.011055924 0.99993217 0.00368529 0
-0.30284172 -0.0082716048 0.11104345 2.1297549e-38 -0.0090796752 0.99991739 -0.0090898136 0
-0.29705232 -0.0081595331 0.11182346 2.1298269e-38 -0.033226248 0.99942589 0.0066320105 0
-0.29114825 -0.0081668561 0.1112215 2.1298269e-38 -0.033083875 0.99927187 -0.01900837 0
-0.28456137 -0.0075830757 0.11128487 2.1297909e-38 -0.059836041 0.99812084 -0.013207084 0
-0.27964431 -0.0075441538 0.11081242 2.1389746e-38 0.012101875 0.99976158 -0.018172991 0
-0.27225497 -0.0074792677 0.11036125 2.1297909e-38 -0.053612143 0.99823624 -0.025500076 0
-0.26788208 -0.0072580879 0.11011795 1.7978502e-38 -0.038791578 0.99918479 -0.011181581 0
-0.26200339 -0.0070556737 0.11155491 1.9177048e-38 -0.052165128 0.99772257 -0.042760968 0
-0.25516522 -0.0066961939 0.11079268 2.0375231e-38 -0.048037391 0.99867439 -0.01849184 0
-0.24897069 -0.0063485443 0.11055445 2.037559e-38 -0.049901385 0.99844205 -0.024966786 0
-0.24297789 -0.0061078016 0.11078161 2.037595e-38 -0.023303688 0.99879169 -0.043267649 0
-0.23518625 -0.0060490621 0.11060914 2.0377031e-38 -0.0066613462 0.99942321 -0.033299293 0
-0.21837434 -0.0060709221 0.10994446 2.0377032e-38 0.03328706 0.99930727 -0.016641261 0
-0.21401091 -0.0062040966 0.11083999 2.0192282e-38 0.033220809 0.9979105 -0.055417016 0
-0.20751953 -0.0063135019 0.11055525 1.9639107e-38 0.016648002 0.9996447 -0.020814652 0
-0.20104617 -0.0063661891 0.11114792 1.9085932e-38 0.0036557321 0.99982196 -0.018510921 0
-0.19548497 -0.0065818978 0.11096092 1.8532039e-38 0.057152711 0.99835408 -0.004764515 0
-0.19119062 -0.0064448817 0.11036788 1.7517889e-38 -0.16437729 0.98626065 0.016433217 0
-0.10937885 -0.0064708614 0.11052471 1.4382157e-38 0.18876773 0.98165441 -0.0268587 0
-0.10407393 -0.0068559512 0.11157439 1.5673613e-38 0.04422228 0.99827391 -0.038645197 0
-0.098561861 -0.0069061057 0.11137961 1.6503015e-38 -0.022187324 0.99969226 -0.011098807 0
-0.092779957 -0.0068817595 0.11070198 1.5212276e-38 -0.066631056 0.99771792 -0.010922614 0
-0.089375526 -0.0063976534 0.11210191 1.3183969e-38 -0.30164573 0.95290512 -0.031332582 0
0.040361404 -0.0067919004 0.11069654 1.4013729e-38 0.47423944 0.88017523 0.019712497 0
0.044546444 -0.0081895841 0.11095496 1.5304472e-38 0.17509696 0.98451447 -0.0085017895 0
0.05063149 -0.0081974128 0.11027487 1.5581059e-38 -0.080653183 0.99646086 -0.023684999 0
0.057084203 -0.0079019321 0.11159675 1.5857646e-38 0.033200242 0.99820405 -0.049864236 0
0.062788449 -0.0082867444 0.11056188 1.6134232e-38 0.041532382 0.99858522 -0.033206314 0
0.069050007 -0.008419672 0.11184862 1.6410819e-38 0.018480795 0.99884504 -0.044352256 0
0.074899599 -0.0084777595 0.11122794 1.6503015e-38 0.0040298612 0.99943852 -0.033262137 0
0.080454215 -0.0086486125 0.11071408 1.6318982e-38 0.013252043 0.99982405 -0.013277143 0
0.087020591 -0.0087278476 0.11090684 1.5950561e-38 0.019995229 0.99980003 -6.6082721e-05 0
0.093073465 -0.0089303274 0.10993978 1.5858367e-38 0.053084284 0.99856818 -0.0066044508 0
0.098491572 -0.0091901403 0.11083013 1.5582503e-38 0.029001184 0.99957108 -0.0040712836 0
0.10553489 -0.0094877603 0.11179303 1.4937494e-38 0.041578945 0.99858004 0.033301901 0
0.11033771 -0.0097270412 0.11008175 1.4937854e-38 0.06638927 0.99759227 0.020055531 0
0.11720949 -0.01009513 0.10979044 1.4845298e-38 0.058181416 0.99663061 0.057813659 0
0.12273955 -0.010376913 0.1110697 1.4661267e-38 0.0069507901 0.99734646 0.072468735 0
0.12905368 -0.010357855 0.11065859 1.4753101e-38 0.019044215 0.99971724 0.014242908 0
0.13582173 -0.010357414 0.11128053 1.4844938e-38 0.0055514728 0.99992281 -0.01111846 0
0.14195557 -0.010359935 0.11067751 1.5213361e-38 -0.020739261 0.99964571 0.016682485 0
0.14747836 -0.010256087 0.1113542 1.539739e-38 0.0042059468 0.99991262 -0.012530539 0
0.15318185 -0.010174442 0.11127704 1.5305555e-38 -0.01663794 0.99985266 -0.0042237705 0
0.15907465 -0.010229614 0.11054738 1.5213358e-38 0.0041685971 0.99977636 0.020732822 0
0.16503504 -0.010238663 0.11047371 1.5121524e-38 0.0032580264 0.99990761 -0.013199457 0
0.17104033 -0.010272451 0.1109129 1.5213361e-38 0.029145554 0.99949729 -0.012475829 0
0.17726368 -0.010478973 0.11095167 1.5121164e-38 -0.00072009035 0.99841863 -0.05621171 0
0.18367983 -0.010545969 0.11184018 1.5028967e-38 0.062679969 0.99629325 -0.058915727 0
0.18906745 -0.01081351 0.11180305 1.5028607e-38 0.039123572 0.9961412 -0.078562863 0
0.19510087 -0.010873498 0.11068098 1.5120802e-38 0.018423295 0.99808991 -0.058967713 0
0.20100804 -0.010945396 0.11103945 1.5028607e-38 0.016629709 0.99982947 -0.0080317724 0
0.20632762 -0.011022262 0.11027244 1.4844575e-38 0.024935627 0.99775052 -0.062226269 0
0.21320499 -0.01114341 0.11086178 1.4936771e-38 -0.0082254037 0.9984349 -0.055317909 0
0.22000018 -0.011327778 0.1109006 1.4844575e-38 0.037987903 0.99791127 -0.052249782 0
0.22538789 -0.011465402 0.11116646 1.4936411e-38 0.01891952 0.99845791 -0.052190609 0
0.23125178 -0.011658457 0.11091956 1.4844215e-38 0.024720401 0.99721003 -0.070434563 0
0.2363521 -0.011744786 0.11166326 1.5028605e-38 0.024873087 0.99823344 -0.053956695 0
0.24102867 -0.011879802 0.11061015 1.5120799e-38 0.039901216 0.99811822 -0.046561208 0
0.26831126 -0.011857512 0.11114325 1.5858367e-38 -0.049878791 0.99872023 -0.0083673773 0
0.27262425 -0.011821958 0.11083857 1.5858367e-38 0.016629137 0.99899626 -0.041593935 0
0.2796081 -0.011933881 0.11071216 1.5858367e-38 0.0041663791 0.9998529 -0.016635401 0
0.28544953 -0.011928574 0.111361 1.6042758e-38 0.0033022156 0.99999458 -2.0342783e-05 0
0.29134807 -0.011957129 0.11054631 1.6042757e-38 -0.004716903 0.99994391 0.0094837919 0
0.29513749 -0.011960732 0.11348395 1.6042758e-38 -0.01662288 0.99764735 0.066509575 0
0.30370352 -0.011941392 0.11073548 1.6134951e-38 -0.016640121 0.99979991 0.011096555 0
0.30898628 -0.011801398 0.11122962 1.6411538e-38 -0.04807112 0.99881661 0.0073956717 0
0.31562978 -0.011474326 0.11106668 1.6595929e-38 -0.023742937 0.9985857 0.047569633 0
0.32135358 -0.01144924 0.11133331 1.6872518e-38 -0.0066211177 0.99856192 0.053199902 0
0.32626802 -0.011577122 0.1115018 1.7056909e-38 0.016662482 0.9956969 0.091159135 0
0.33175713 -0.011441305 0.1109981 1.7425693e-38 0.0053979009 0.98814046 0.15345757 0
0.33796716 -0.011662042 0.11176307 1.770264e-38 -0.089350149 0.98182291 0.16745208 0
0.34410322 -0.010564462 0.11051441 1.8256174e-38 -0.2011351 0.9611643 0.18896489 0
0.35072827 -0.0092086233 0.11102595 1.8717152e-38 -0.2252582 0.95347214 0.20037386 0
0.35665044 -0.0086251004 0.11142058 1.8901545e-38 0.13609302 0.95919454 0.24783953 0
0.36273071 -0.0099888137 0.11128309 1.9085577e-38 0.011741431 0.99207145 0.12512547 0
0.36975214 -0.0080234446 0.11056301 1.945472e-38 -0.3817029 0.92084193 0.079706401 0
0.37502915 -0.0072672148 0.11083382 1.945472e-38 0.061304756 0.99295944 -0.10135698 0
0.38094965 -0.0081313271 0.111329 1.9362524e-38 0.33789814 0.69599235 -0.63357675 0
0.38662699 -0.010543733 0.1107188 1.945472e-38 0.38545722 0.810256 -0.44148389 0
0.39178383 -0.011768559 0.1138577 1.945472e-38 -0.021247864 0.77022082 -0.63742328 0
-0.39798927 -0.0015998018 0.11375727 1.0786877e-38 -0.027357833 0.29297721 0.95572793 0
-0.39243966 -0.0015271513 0.11344834 1.0786877e-38 0.18961464 0.35061333 0.91712409 0
-0.38685232 -0.0029604565 0.11228569 1.0786877e-38 0.28975496 0.37164029 0.88200086 0
-0.38150942 -0.0024820536 0.10929108 1.0879073e-38 0.52517605 0.36717504 0.7677061 0
-0.24249196 -0.0059661316 0.11394358 2.0284478e-38 -0.066519089 0.99778515 0 0
-0.23719472 -0.0059674773 0.11297735 2.0653259e-38 0.022198994 0.99876887 -0.044360973 0
-0.23098245 -0.0059209904 0.11251085 2.0561422e-38 -0.0083341245 0.99941063 -0.033299822 0
-0.22511367 -0.0059450199 0.11105806 2.0377031e-38 -0.01328978 0.99982297 -0.013319183 0
-0.22019166 -0.0059457798 0.11200138 2.0469226e-38 0.033190496 0.99791545 -0.055346068 0
-0.18775621 -0.0044869706 0.11096068 1.6319347e-38 -0.2321053 0.97251725 0.018368568 0
-0.18358508 -0.0029602214 0.11066922 1.5027892e-38 -0.62601334 0.73000121 0.27423623 0
-0.17878091 -0.0024924395 0.10956471 1.0232297e-38 -0.84914327 0.51403189 0.12135432 0
-0.12009584 -0.00085945078 0.11024992 9.7720179e-39 0.91076481 0.24287021 -0.3339484 0
-0.11713883 -0.0032027254 0.11108128 1.0509937e-38 0.55614978 0.82931507 -0.054166224 0
-0.11300176 -0.0053516026 0.11063983 1.2722274e-38 0.42552513 0.90494657 0.00018817099 0
-0.086205982 -0.0041017635 0.11053576 1.2076893e-38 -0.69337493 0.71552593 -0.085169107 0
-0.08310163 -0.00078642333 0.1105962 1.5304077e-38 -0.72442782 0.68532079 -0.074429594 0
0.02941131 -0.0009104553 0.10992163 9.7774185e-39 0.51505631 0.84798324 -0.12506607 0
0.03226833 -0.0022460085 0.11096592 1.1621318e-38 0.47736868 0.87791353 -0.037240338 0
0.03712219 -0.0047040498 0.11080103 1.1338968e-38 0.50998062 0.85791129 0.062514201 0
0.37705958 -0.0059117391 0.11283846 1.9270329e-38 -0.097590432 0.97590011 0.19517975 0
-0.40438828 0.0053288774 0.11339297 1.0141505e-38 0.31714639 0.83221763 0.45478782 0
-0.39843094 0.0039654025 0.11287507 1.0510291e-38 0.22458673 0.60730743 0.76206201 0
-0.39362249 0.0024890348 0.11252855 1.0418094e-38 0.28732735 0.36678743 0.88482201 0
-0.38701725 0.0034465529 0.10960575 9.6805243e-39 0.48521909 0.36967835 0.79240167 0
-0.3821339 0.001338705 0.10855262 9.2195448e-39 0.47165361 0.27220947 0.83871621 0
-0.18327126 0.0030398427 0.11120768 1.5028251e-38 -0.87496084 0.48105848 0.055012014 0
-0.1204768 0.0033036091 0.11156232 9.4954352e-39 0.984079 0.06185421 -0.16662106 0
-0.079858325 0.0013673654 0.11099575 1.0604985e-38 -0.39639351 0.91242284 -0.10176867 0
-0.074905768 0.0019734052 0.11075249 1.641225e-38 -0.054756097 0.9932034 -0.10270704 0
-0.068715893 0.0027637465 0.11174773 1.9730935e-38 -0.11850138 0.99192268 -0.045241706 0
-0.063572094 0.0033589867 0.11162914 1.9362512e-38 -0.14574434 0.98876518 -0.033195209 0
-0.057006598 0.004145381 0.11153212 1.5305905e-38 -0.066261359 0.99679208 -0.044888701 0
-0.051588353 0.0044001001 0.11171515 1.6042747e-38 -0.026139999 0.99752009 -0.06534797 0
-0.044129465 0.0042835195 0.11091806 1.9546537e-38 0.064350322 0.99086159 -0.11854301 0
-0.038949687 0.0038719962 0.11000711 1.9731293e-38 0.085043587 0.97458112 -0.2072662 0
-0.033526782 0.0033586745 0.11073318 1.9915324e-38 0.10329378 0.97748387 -0.18399893 0
-0.026857056 0.0026298186 0.11069317 2.0100438e-38 0.095363103 0.97375399 -0.20666173 0
-0.020102944 0.0019657905 0.11051759 2.0191914e-38 0.084475622 0.98378527 -0.15820998 0
-0.015119555 0.0017402716 0.11123794 2.0191915e-38 0.092399828 0.97132331 -0.21907394 0
-0.0091862092 0.0013667727 0.11181793 2.0191555e-38 0.050879028 0.97764832 -0.20399746 0
-0.0034110174 0.0011979698 0.11144284 1.9915328e-38 0.0083604408 0.9816066 -0.1907315 0
0.0031922837 0.00096246396 0.11114676 1.96391e-38 0.029268688 0.98660821 -0.16046056 0
0.0092404084 0.0009284761 0.11137968 1.9085926e-38 -0.014142378 0.99113816 -0.13208006 0
0.014527506 0.00099147845 0.11070385 1.8809701e-38 -0.016583271 0.99765164 -0.06645523 0
0.021209665 0.0010813473 0.11134627 1.8717505e-38 -0.011905783 0.98819387 -0.15274552 0
0.025989249 0.00073751371 0.11149222 1.8717145e-38 0.23647919 0.96782815 -0.085943237 0
-0.41004658 0.0080626048 0.11325331 9.2195448e-39 0.36482716 0.54137957 0.75750208 0
-0.40422857 0.0078259511 0.11119696 9.3120991e-39 0.22398587 0.52421522 0.82160133 0
-0.39907569 0.0081576547 0.1102065 9.6808802e-39 0.23037797 0.5114004 0.82788616 0
-0.39281887 0.0072166654 0.1094801 9.4964904e-39 0.07874389 0.62971944 0.77282137 0
-0.38804528 0.0079673575 0.10809103 1.0049305e-38 0.27201313 0.32232034 0.90670747 0
-0.18165176 0.0090404926 0.11091996 1.263045e-38 -0.94479656 0.31743249 -0.081216663 0
-0.12086768 0.0097753601 0.11093693 8.7575184e-39 0.97501969 0.18000473 -0.13013437 0
-0.18021163 0.013012962 0.10999276 1.1154965e-38 -0.94444346 0.31481272 -0.094443649 0
-0.17872176 0.016950345 0.10986288 9.6794832e-39 -0.86168021 0.47013307 -0.19100286 0
-0.12210257 0.014593814 0.11130919 9.6794747e-39 0.91225731 0.37307864 -0.16911198 0
-0.17622986 0.021211552 0.1112214 1.106206e-38 -0.79536068 0.57017791 -0.20566601 0
-0.17373134 0.023091748 0.10807024 1.2998527e-38 -0.71051872 0.65367579 -0.26052099 0
-0.12729429 0.022813378 0.10996827 9.4950961e-39 0.66795486 0.71078628 -0.22049771 0
-0.12452726 0.019867593 0.11068801 9.0344753e-39 0.84639215 0.48917723 -0.21053688 0
-0.17435911 0.02426645 0.1131302 4.7005688e-39 -0.65995449 0.71275127 -0.23758331 0
-0.17105335 0.026057137 0.11110004 1.2629749e-38 -0.43307847 0.87818944 -0.20304273 0
-0.1644015 0.028041458 0.1113684 1.1062418e-38 -0.12721591 0.98405653 -0.12429353 0
-0.1594549 0.028389426 0.11106637 1.23528e-38 -0.019037629 0.98799264 -0.15332395 0
-0.15340509 0.028231885 0.11133447 1.0508891e-38 0.052795608 0.98638278 -0.15576175 0
-0.14638819 0.028157711 0.11175495 9.5872903e-39 0.063086383 0.98183209 -0.17895788 0
-0.14063065 0.027698904 0.11198528 9.4950975e-39 0.092633665 0.97657651 -0.19420941 0
-0.13420205 0.026505455 0.11129517 1.1154616e-38 0.26759562 0.94306695 -0.19752793 0
-0.13029383 0.024856888 0.11048216 9.3107034e-39 0.42319947 0.88215613 -0.20664667 0
0.24970792 -0.012061769 0.1146424 1.5489583e-38 0 0.9977901 -0.066445589 0
0.2556403 -0.01204985 0.11475226 1.5673976e-38 0 0.99778521 -0.066518769 0
0.28747186 -0.012037434 0.1155667 1.5858367e-38 -0.066482335 0.99723375 0.033241086 0
0.29697922 -0.012071718 0.11728296 1.5950563e-38 0.021133911 0.9997589 -0.0059669721 0
0.30270353 -0.012056003 0.11710528 1.6134954e-38 -0.0055319723 0.99992311 0.011101018 0
0.32754523 -0.012026842 0.11945015 1.7149103e-38 -0.033149719 0.99449039 0.099448912 0
0.33284962 -0.012349446 0.11792033 1.7149106e-38 0.091684818 0.99250352 0.080812372 0
0.33887202 -0.012433119 0.11780903 1.7425692e-38 -0.073989302 0.9914813 0.10719319 0
0.39880839 -0.012979835 0.11665756 1.9085939e-38 0.22912319 0.92376065 -0.30686936 0
0.40435287 -0.014041698 0.11750398 1.9178133e-38 0.33994004 0.9118256 -0.23024932 0
0.40926895 -0.013792738 0.11946022 1.9823504e-38 -0.054135948 0.99055344 -0.12598899 0
-0.41496342 -0.006564273 0.11996485 1.5674328e-38 0.3835007 0.67676401 0.62842476 0
-0.40996557 -0.0071450076 0.1187219 1.7425327e-38 0.23663713 0.71135283 0.66180056 0
-0.40532196 -0.0076853279 0.11813915 1.7333132e-38 0.11913621 0.70702195 0.69708431 0
-0.39937618 -0.0075830794 0.11815487 1.7148739e-38 -0.078830793 0.76026583 0.64481127 0
-0.39329872 -0.0078722201 0.11746208 1.8255088e-38 0.2035896 0.82249629 0.5310849 0
-0.38800725 -0.0081887189 0.11646949 1.5858e-38 0.11526576 0.87942785 0.4618662 0
-0.3816897 -0.0087728128 0.11637138 1.7886305e-38 0.087401554 0.96281874 0.25561926 0
-0.37431717 -0.0096417991 0.11723068 2.0006806e-38 0.12246106 0.99139333 0.046289269 0
-0.36861154 -0.01021257 0.11781679 2.0283034e-38 0.014380838 0.99961662 0.023659926 0
-0.36256376 -0.0098548308 0.11673696 2.0283394e-38 -0.082750328 0.99625796 0.02494888 0
-0.35708144 -0.0095324051 0.11742959 2.0283394e-38 -0.039278243 0.99922389 0.0029695809 0
-0.35013366 -0.0093243411 0.11688175 2.0283755e-38 -0.016634148 0.99980026 0.011082284 0
-0.34459436 -0.0093 0.1165133 2.0191559e-38 0 1 0 0
-0.33877033 -0.0090497732 0.11687738 2.0560342e-38 -0.053170141 0.99831516 0.023234263 0
-0.33214286 -0.0087568751 0.11615714 2.0652537e-38 -0.033287961 0.99938399 -0.011118568 0
-0.32692429 -0.0086603556 0.11639337 2.0929124e-38 -0.0066642435 0.99997789 -3.6975332e-06 0
-0.32034427 -0.0085742958 0.11699392 2.083693e-38 -0.029098375 0.99957657 9.2115251e-06 0
-0.31539789 -0.0083397292 0.11733534 2.1021321e-38 -0.03801221 0.99927723 -3.1523265e-05 0
-0.30905893 -0.008204259 0.11670822 2.1389745e-38 -0.0082998285 0.99941045 -0.033315718 0
-0.30253351 -0.0081647234 0.11777795 2.1482302e-38 0.0083110025 0.99965435 -0.024941983 0
-0.29712895 -0.0082036294 0.11651862 2.1482302e-38 -0.033243809 0.99943161 -0.0055978638 0
