# .PCD v0.7 - Point Cloud Data file format
VERSION 0.7
FIELDS x y z rgb normal_x normal_y normal_z curvature
SIZE 4 4 4 4 4 4 4 4
TYPE F F F F F F F F
COUNT 1 1 1 1 1 1 1 1
WIDTH 538
HEIGHT 1
VIEWPOINT 0 0 0 1 0 0 0
POINTS 538
DATA ascii
-0.086127892 -0.023700001 -0.12926261 1.7609721e-38 0 1 0 0
-0.081087753 -0.023689775 -0.1280451 1.7701918e-38 -0.012495419 0.99991328 -0.0041651437 0
-0.075162306 -0.023575541 -0.12971643 1.7978145e-38 -0.023799436 0.99970543 0.0047557154 0
-0.068827711 -0.02348897 -0.12910081 1.7978507e-38 -0.016650584 0.99986136 -5.5142329e-05 0
-0.062451258 -0.023586532 -0.12832218 1.7795194e-38 0.024944192 0.9996888 9.1637812e-06 0
-0.056804877 -0.023691839 -0.12832166 1.7795196e-38 0.0047598965 0.99997741 -0.0047599026 0
-0.050835062 -0.023690013 -0.12952225 1.7979227e-38 -0.00951997 0.99995464 -1.8518134e-05 0
-0.044318385 -0.023759276 -0.12900108 1.8071061e-38 0.033211622 0.99931061 -0.016588552 0
-0.038723115 -0.023882117 -0.12945621 1.788739e-38 0.016668316 0.99982679 0.0082825273 0
-0.034946069 -0.023959348 -0.12917581 1.7979225e-38 0.022214629 0.99975318 6.1062783e-06 0
-0.031839512 -0.024098018 -0.12296982 1.7978864e-38 0.039959136 0.9992013 0 0
-0.027238581 -0.024378449 -0.1230119 1.8162895e-38 0.070516534 0.99747545 0.0083768154 0
-0.02035347 -0.02477935 -0.12302487 1.7887028e-38 0.036876224 0.99921 0.01481588 0
-0.014326533 -0.025063379 -0.12298957 1.7794473e-38 0.045720067 0.99881613 -0.016613539 0
-0.0078269402 -0.025449563 -0.12319408 1.7794475e-38 0.13464934 0.99071968 0.01855121 0
-0.0021451418 -0.025544697 -0.1229568 1.7794833e-38 -0.11342304 0.9904958 -0.077803068 0
0.0031916064 -0.025459144 -0.12335477 1.7702281e-38 0.066933587 0.99582624 -0.062048078 0
0.0087598572 -0.02561802 -0.12270568 1.7610086e-38 -0.02305864 0.99913025 -0.034743521 0
0.014999452 -0.02534716 -0.12294988 1.7426416e-38 -0.020196633 0.9954195 -0.093446277 0
0.020980133 -0.025302574 -0.12280712 1.7426415e-38 0.038419988 0.99853379 -0.038133681 0
0.026421996 -0.02553778 -0.12359321 1.7426054e-38 0.065440595 0.99650508 -0.051915064 0
0.032412682 -0.02556737 -0.12270217 1.7426053e-38 0.066413812 0.99394357 -0.087552354 0
0.038996793 -0.025622904 -0.12197148 1.7241662e-38 -0.042495634 0.99829793 -0.03994292 0
0.04465045 -0.025683217 -0.12220677 1.7426053e-38 -0.0014180987 0.99700814 -0.077283971 0
0.05063929 -0.025872651 -0.12294422 1.7517889e-38 0.018297151 0.99739617 -0.069757998 0
0.056913204 -0.026180256 -0.12269358 1.7425694e-38 0.096348949 0.9953447 -0.002390007 0
0.063244708 -0.025918273 -0.12371818 1.7149829e-38 -0.13082226 0.99108863 0.025076985 0
0.068917274 -0.025492404 -0.12218566 1.7149829e-38 -0.071545668 0.99355108 0.087963596 0
0.07460805 -0.025332719 -0.12190213 1.7425334e-38 0.10146487 0.99483329 0.0034111799 0
0.087793365 -0.024991008 -0.12175441 1.7241302e-38 -0.26312909 0.9592154 0.1032903 0
0.092688605 -0.024483237 -0.12416375 1.705691e-38 -0.13758843 0.98320407 -0.11991303 0
0.097393513 -0.024150049 -0.12298326 1.7149106e-38 -0.082661942 0.99484968 -0.0586619 0
-0.40907764 -0.022025589 -0.12265868 1.7241296e-38 -0.14533229 0.95258355 0.26732567 0
-0.40499878 -0.021528268 -0.12340212 1.7333492e-38 0.020065948 0.99906045 -0.038415357 0
-0.39970225 -0.022567611 -0.1227602 1.7425327e-38 0.36711985 0.92247492 -0.1194277 0
-0.39347261 -0.0236859 -0.12312384 1.7517523e-38 0.047451146 0.9985916 -0.023733541 0
-0.38702735 -0.023329865 -0.1223186 1.7886304e-38 -0.078280263 0.99688977 -0.0091030514 0
-0.38111523 -0.023025667 -0.12341278 1.7978501e-38 -0.099401571 0.99498701 0.010962378 0
-0.37423465 -0.022522224 -0.12311604 1.8071057e-38 -0.13511521 0.99082923 0.0011770751 0
-0.3692767 -0.022114618 -0.12283503 1.8162892e-38 -0.047681659 0.99886042 0.0020675515 0
-0.36387077 -0.021833839 -0.12308437 1.8255088e-38 -0.070965834 0.99692357 -0.033274975 0
-0.35703355 -0.021470472 -0.12272762 1.8255088e-38 -0.025896087 0.9994179 -0.022208635 0
-0.35077104 -0.021246938 -0.12328728 1.8255086e-38 -0.029967679 0.99941176 -0.016675198 0
-0.34495282 -0.02109939 -0.12330028 1.5396662e-38 -0.022187512 0.99973828 -0.0055699782 0
-0.33959994 -0.021119576 -0.1235171 1.5949475e-38 0.03800004 0.99855453 -0.038010482 0
-0.33357641 -0.021345172 -0.12217511 1.8071055e-38 0.033262331 0.99889296 -0.033262439 0
-0.32669622 -0.02154679 -0.12275638 1.8162892e-38 0.02325223 0.99964124 -0.013291136 0
-0.32034427 -0.021720309 -0.12281584 1.8162892e-38 0.023759626 0.99967217 0.0095363827 0
-0.31469542 -0.021775233 -0.12287067 1.8070697e-38 0.0074009467 0.99941868 0.033279061 0
-0.30873179 -0.021851446 -0.12253856 1.797886e-38 0.0095154783 0.9999547 2.6152723e-06 0
-0.30255386 -0.021907525 -0.12360879 1.7795549e-38 0.0047606695 0.99997729 -0.0047606579 0
-0.29633218 -0.021919936 -0.12272688 1.7795549e-38 0.0037009532 0.99955481 -0.02960523 0
-0.29049167 -0.021946615 -0.12323866 1.7887386e-38 0 0.99944538 -0.033300031 0
-0.28442243 -0.021954192 -0.1222943 1.7795189e-38 0.021176828 0.99874896 -0.04529934 0
-0.27919003 -0.022089979 -0.12273545 1.779483e-38 -1.8155306e-05 0.99780333 -0.06624537 0
-0.27317354 -0.021994395 -0.12245244 1.7610799e-38 8.2080753e-08 0.99875826 -0.049818769 0
-0.26702052 -0.022046428 -0.12351639 1.779447e-38 -0.0095523251 0.99985313 -0.014228887 0
-0.2605876 -0.022007858 -0.12287209 1.7518962e-38 0.0083117988 0.99954224 -0.029092034 0
-0.25431299 -0.022140538 -0.12230957 1.7610439e-38 -0.0048029069 0.99944592 -0.032936979 0
-0.24972902 -0.022011489 -0.12313185 1.7794468e-38 -3.6368918e-05 0.99993658 0.011268589 0
-0.24314699 -0.022129407 -0.12307099 1.7610079e-38 0.020798497 0.99892092 -0.041525822 0
-0.23711267 -0.022217626 -0.12273716 1.7609718e-38 0.014254262 0.99934536 -0.033251144 0
-0.23081583 -0.022406448 -0.12395564 1.7701914e-38 0.026998749 0.99828523 -0.051939409 0
-0.2255473 -0.02250242 -0.12317412 1.7609717e-38 0.015133053 0.99856567 -0.051358543 0
-0.21957025 -0.022529822 -0.12268066 1.7609718e-38 0.029923949 0.99910438 -0.029916646 0
-0.21240407 -0.022689058 -0.12287609 1.7609717e-38 0.022191536 0.99972641 -0.0073889685 0
-0.20678177 -0.022929879 -0.12300312 1.7517521e-38 0.049850643 0.99861878 -0.016595514 0
-0.20106687 -0.023215618 -0.12397317 1.7517882e-38 0.033287689 0.99934423 -0.014250429 0
-0.19580363 -0.023317458 -0.12339941 1.7517523e-38 0.023746697 0.9991641 -0.033273846 0
-0.18957409 -0.023334842 -0.12305625 1.7701914e-38 -0.0033345802 0.99905795 -0.043269042 0
-0.18359056 -0.02333742 -0.12288184 1.7701914e-38 -0.0099983644 0.99927902 -0.03662727 0
-0.17706771 -0.023276847 -0.12258492 1.779411e-38 0.0033011893 0.99905998 -0.043223783 0
-0.17127749 -0.023249103 -0.12282965 1.7886305e-38 -0.0083283894 0.99982649 -0.016659131 0
-0.16477062 -0.023221454 -0.12277857 1.7702634e-38 -0.0055521382 0.99984568 -0.016668696 0
-0.15815021 -0.023145234 -0.12281267 1.7886665e-38 -0.011114348 0.99992287 -0.005552554 0
-0.15272437 -0.023128338 -0.12328028 1.7886305e-38 -2.3506846e-06 0.99992186 -0.01249583 0
-0.14717944 -0.023215877 -0.12326443 1.779447e-38 0.022212571 0.99969161 -0.011106302 0
-0.141425 -0.02332091 -0.12276618 1.779411e-38 -0.013328792 0.99971139 0.019987546 0
-0.13520724 -0.02330339 -0.12336066 1.7610797e-38 -8.197695e-06 0.99997276 -0.0073816814 0
-0.12820223 -0.023420025 -0.12357841 1.7426766e-38 0.024963796 0.99926448 -0.029108696 0
-0.12221273 -0.023435095 -0.12271301 1.7334571e-38 -0.0094956225 0.99990958 -0.0095217861 0
-0.11674381 -0.023443539 -0.12259366 1.7427125e-38 0.0041673267 0.99995655 -0.0083346926 0
-0.11118964 -0.023465667 -0.12351578 1.7426766e-38 -0.0047587836 0.99997735 0.0047587724 0
-0.10462473 -0.023512922 -0.12321709 1.7242376e-38 0.0083295656 0.99996531 2.3869591e-06 0
-0.099159546 -0.023601426 -0.12301812 1.7426768e-38 0.044357222 0.99895436 -0.011070983 0
-0.092965841 -0.023670953 -0.12291931 1.7517524e-38 0.0083315875 0.99993056 -0.0083315875 0
-0.087219976 -0.023681873 -0.12338661 1.7701917e-38 -1.5397114e-06 0.99998456 -0.005552893 0
-0.079712734 -0.02366304 -0.12247922 1.7886668e-38 -0.0047591925 0.99998862 -2.6400051e-06 0
-0.074049063 -0.023571307 -0.122516 1.7978145e-38 -0.0074236197 0.99996561 0.0037200414 0
-0.068933085 -0.023554737 -0.12269472 1.7886668e-38 1.6373202e-05 1 -4.0835173e-05 0
-0.062767193 -0.023585362 -0.123289 1.8070701e-38 0.0047492534 0.99980706 0.019058108 0
-0.056422532 -0.023619317 -0.12359986 1.7978865e-38 0.005529156 0.99984604 -0.016654849 0
-0.051519342 -0.023621147 -0.12288304 1.788667e-38 -0.0066629397 0.99942321 -0.033299416 0
-0.045305032 -0.023698064 -0.12262037 1.8162898e-38 0.027177321 0.9994669 -0.01808955 0
-0.03842539 -0.023907265 -0.12262861 1.7978864e-38 0.028537266 0.99958128 0.0047925371 0
-0.034712136 -0.023972766 -0.12226705 1.8163257e-38 0.049912248 0.99861526 -0.016625136 0
0.098410495 -0.023868294 -0.12087727 1.6964715e-38 -0.087604567 0.99396026 0.066094287 0
0.1029963 -0.02396642 -0.12149989 1.7149106e-38 0.066518933 0.99778521 0 0
-0.032249689 -0.024072913 -0.11684781 1.8070702e-38 0.073095955 0.99732494 2.9367086e-05 0
-0.026895853 -0.02441977 -0.117414 1.8070341e-38 0.061675671 0.99805135 -0.0094638374 0
-0.021625046 -0.024753192 -0.11695617 1.7978146e-38 0.056900151 0.99820161 -0.018868146 0
-0.015364806 -0.024803722 -0.11692277 1.7978864e-38 0.0083076069 0.99965328 -0.024986772 0
-0.0087020854 -0.025269914 -0.11762611 1.788667e-38 0.076154217 0.99588776 -0.049073208 0
-0.0032854497 -0.025401071 -0.11746067 1.7794474e-38 -0.0090676127 0.99605286 -0.088297307 0
0.0034368562 -0.025398811 -0.11675783 1.7886311e-38 0.010501676 0.99994481 -0.00033931257 0
0.0088443756 -0.02535216 -0.11741734 1.7610084e-38 0.0037031858 0.98824871 -0.1528095 0
0.014803106 -0.025084907 -0.11699753 1.7518607e-38 -0.053285901 0.99407923 -0.094694957 0
0.021513669 -0.025138844 -0.11642599 1.7426412e-38 0.033204913 0.99697399 -0.070287324 0
0.027399128 -0.02529333 -0.11696468 1.7518249e-38 -0.010045083 0.99677473 -0.079619355 0
0.03414372 -0.025218002 -0.11672556 1.7517889e-38 0.053130455 0.99511272 -0.08323361 0
0.039323304 -0.025501085 -0.11656506 1.7425693e-38 0.077994198 0.98553878 -0.15043354 0
0.044634718 -0.025415884 -0.11688461 1.7334218e-38 -0.043167602 0.99747831 -0.056334648 0
0.051181775 -0.025408277 -0.1173796 1.7425693e-38 0.07466232 0.98644376 -0.14613074 0
0.056610178 -0.025675008 -0.11656281 1.7517528e-38 0.17368779 0.96093303 -0.21549994 0
0.062776402 -0.026150791 -0.11720045 1.7242025e-38 -0.0031972819 0.99889457 -0.046897773 0
0.068293944 -0.026085721 -0.11740736 1.7149829e-38 -0.061549604 0.99566978 0.069665454 0
0.075001389 -0.025529606 -0.11675265 1.7149469e-38 -0.08568427 0.99259609 0.086088635 0
0.080721073 -0.025501074 -0.11695472 1.7241302e-38 -0.029454703 0.99934715 -0.020918781 0
0.086597666 -0.025037685 -0.11740078 1.7149106e-38 -0.086981691 0.99306631 -0.079078682 0
0.093235143 -0.024397667 -0.1173189 1.7149106e-38 -0.068188399 0.99589127 0.059588853 0
0.098844245 -0.024144422 -0.11682405 1.6964715e-38 -0.024723865 0.99939507 0.024457539 0
0.10465021 -0.02418267 -0.11574193 1.7056909e-38 -0.16059034 0.97358221 0.1623221 0
0.12495071 -0.025212232 -0.11455113 1.6872519e-38 -0.36613652 0.92636943 0.088225268 0
0.12914898 -0.026174152 -0.11619198 1.6965434e-38 0.25221744 0.8933984 -0.37178713 0
0.1351144 -0.026986046 -0.1151129 1.6780679e-38 0.13119262 0.97956532 -0.15244776 0
0.14012867 -0.027174527 -0.11467639 1.705691e-38 -0.46736589 0.87630898 0.11684076 0
0.14650419 -0.026637357 -0.11627977 1.6688488e-38 0.068949677 0.99504584 -0.07162182 0
-0.40882742 -0.022112565 -0.11857331 1.7149459e-38 -0.25690627 0.95461118 -0.1507206 0
-0.40511698 -0.021105703 -0.11739228 1.7333492e-38 -0.058442309 0.99791294 -0.027465275 0
-0.39850765 -0.022168737 -0.11653553 1.7517523e-38 0.37756312 0.92462587 -0.050130442 0
-0.3927229 -0.023420375 -0.11636013 1.7609718e-38 0.08131668 0.99272126 -0.088837236 0
-0.38745156 -0.023272108 -0.11644871 1.779411e-38 -0.089891963 0.99590611 -0.0095065348 0
-0.3808445 -0.022890545 -0.11703748 1.8070697e-38 -0.066411257 0.99723798 -0.033255517 0
-0.37475947 -0.022499263 -0.11710123 1.8162892e-38 -0.12848842 0.99171019 0.0013019241 0
-0.36851826 -0.022043632 -0.11696284 1.8162892e-38 -0.076531507 0.99685729 0.020457227 0
-0.3624309 -0.021659721 -0.1176219 1.8071057e-38 -0.04749573 0.99877048 0.014203381 0
-0.35721704 -0.021387029 -0.11665198 1.8255088e-38 -0.055395592 0.99843645 -0.0074825734 0
-0.3512381 -0.021097422 -0.11648925 1.8162892e-38 -0.038023651 0.99909538 -0.019041998 0
-0.34509349 -0.021017559 -0.11724801 1.6871793e-38 8.1615717e-06 0.99982893 -0.018493911 0
-0.3391268 -0.021063581 -0.11782996 1.6503011e-38 0.016662061 0.99986118 1.0713182e-08 0
-0.33295855 -0.02122152 -0.11625436 1.8254729e-38 0.01666175 0.99979949 -0.011106787 0
-0.32635492 -0.021413328 -0.11670799 1.8162892e-38 0.036269184 0.99868423 -0.036255956 0
-0.32024479 -0.021594346 -0.11641153 1.8071057e-38 0.02218988 0.99877352 -0.044260181 0
-0.31514958 -0.02170065 -0.11708356 1.8163251e-38 0.018994084 0.99845505 -0.052218121 0
-0.30906039 -0.021798991 -0.1173868 1.8162892e-38 -0.0041576587 0.99894416 -0.045752674 0
-0.3034181 -0.021758189 -0.11719428 1.7979221e-38 0.0041625542 0.99928921 -0.037467517 0
-0.29762396 -0.0217923 -0.1172663 1.8071415e-38 -8.156383e-06 0.99966466 -0.025894834 0
-0.2909908 -0.021738743 -0.11699709 1.7979221e-38 -0.007415886 0.99986303 -0.014794994 0
-0.28518271 -0.021715743 -0.11643057 1.7978861e-38 0.0047552609 0.99980783 -0.019018721 0
-0.2794424 -0.021814618 -0.11640783 1.7887383e-38 0.0041613989 0.99956632 -0.029152805 0
-0.27263704 -0.021813406 -0.1168718 1.7795189e-38 0.014279766 0.9994905 -0.028544022 0
-0.2671378 -0.02177663 -0.11698411 1.7795189e-38 -0.018505862 0.9993912 -0.029573407 0
-0.26088458 -0.021684408 -0.11643367 1.7611158e-38 0.0083235344 0.99909967 -0.041599113 0
-0.25497061 -0.021758962 -0.11668979 1.7610797e-38 0.013329818 0.99935734 -0.033275072 0
-0.24863787 -0.021801464 -0.1166021 1.7518962e-38 -0.0041694455 0.99929422 -0.03733262 0
-0.24304447 -0.021929242 -0.11742155 1.7610797e-38 0.016462194 0.99944448 -0.028977036 0
-0.23679596 -0.022030726 -0.11712308 1.7701913e-38 0.016571891 0.99900007 -0.041522786 0
-0.23150271 -0.022157844 -0.11700043 1.7701913e-38 0.025702689 0.99833709 -0.051599346 0
-0.22456726 -0.022284189 -0.11655555 1.7610079e-38 0.020807251 0.99964523 -0.016625004 0
-0.21900268 -0.022361448 -0.11675882 1.7609718e-38 0.02210878 0.99950933 -0.022189623 0
-0.21413727 -0.022592122 -0.1169759 1.7701914e-38 0.049651604 0.9986586 -0.014687531 0
-0.2068567 -0.022843873 -0.11644255 1.7609718e-38 0.044325303 0.99898994 -0.0073756762 0
-0.20103829 -0.023029879 -0.11760399 1.7701914e-38 0.029576074 0.99912465 -0.02958432 0
-0.1948801 -0.023127139 -0.11649231 1.779411e-38 0.014791751 0.9993363 -0.033290621 0
-0.18892358 -0.023185229 -0.1169729 1.779411e-38 1.957117e-08 0.9997831 -0.020826763 0
-0.1836573 -0.023137357 -0.11665902 1.7794468e-38 -0.029140884 0.99926358 -0.024959076 0
-0.1779294 -0.023067508 -0.11586796 1.779411e-38 -0.0066694845 0.99997777 0 0
-0.1714021 -0.023105418 -0.1175768 1.7886305e-38 -0.0041897772 0.99943852 -0.033243395 0
-0.16465607 -0.023039345 -0.11631348 1.779483e-38 -0.0033306198 0.9997946 -0.01999291 0
-0.15783377 -0.023020351 -0.11669404 1.7611518e-38 -2.7573793e-05 0.99968833 -0.024963396 0
-0.15203601 -0.02308137 -0.11694099 1.7702634e-38 0.011093644 0.99991113 -0.0074012573 0
-0.1465735 -0.023130471 -0.11722749 1.7702274e-38 0.014282057 0.9998529 -0.0094967997 0
-0.14061816 -0.023202926 -0.11713134 1.779447e-38 0.019940976 0.99960321 -0.01989327 0
-0.13573775 -0.023272444 -0.11746218 1.7886305e-38 0.014276356 0.99979615 -0.014276357 0
-0.12936324 -0.023356598 -0.1172612 1.7610437e-38 0.012111147 0.99992669 1.5591493e-08 0
-0.12377134 -0.023377815 -0.11675607 1.7518962e-38 -0.016661767 0.99979985 -0.011080207 0
-0.11752401 -0.023354538 -0.11653885 1.7426766e-38 0.011096739 0.99969214 -0.022193523 0
-0.11042587 -0.023435313 -0.11709802 1.7242375e-38 0.016659211 0.99982655 -0.0083284434 0
-0.10496692 -0.023531819 -0.11676753 1.7242376e-38 0.013329287 0.99990565 -0.0033295644 0
-0.099224344 -0.0236091 -0.11684048 1.7426406e-38 0.011103538 0.99993151 -0.0037010936 0
-0.092837766 -0.023645075 -0.11652511 1.7609721e-38 -0.0083307223 0.99996531 -4.7069324e-08 0
-0.086680904 -0.023645299 -0.11694685 1.7609723e-38 -0.0083086994 0.99993074 -0.0083361818 0
-0.081738554 -0.023587573 -0.1173271 1.7701558e-38 -0.004770034 0.99926472 -0.03804218 0
-0.075008802 -0.023561392 -0.11655841 1.7794114e-38 -0.0047609615 0.99970543 -0.023799337 0
-0.068287671 -0.023510421 -0.11687289 1.7886668e-38 -2.7394271e-06 0.99981874 -0.019040141 0
-0.06267485 -0.023532473 -0.11759391 1.8070699e-38 0.0041669942 0.9999913 1.3918795e-05 0
-0.057673622 -0.023542332 -0.11754779 1.8070699e-38 0.014204591 0.99949253 -0.028513657 0
-0.051014442 -0.023512706 -0.11711293 1.807106e-38 -0.01111221 0.99990362 -0.0083245505 0
-0.044892799 -0.023549436 -0.1166525 1.8255092e-38 0.03329521 0.99930692 -0.016644506 0
-0.039333001 -0.02379526 -0.11692401 1.807106e-38 0.051762935 0.99859798 -0.011078513 0
-0.035214622 -0.023949454 -0.11742448 1.807106e-38 0.011105605 0.99987668 -0.011105592 0
0.10078444 -0.023916915 -0.11795658 1.7149106e-38 -0.033181414 0.99931002 0.016687334 0
0.1063472 -0.023899678 -0.11637785 1.7149105e-38 -0.080564775 0.98800582 -0.13173394 0
0.11071099 -0.023097418 -0.11668298 1.705691e-38 -0.02573503 0.99936897 -0.024482036 0
0.11596975 -0.02262325 -0.11559711 1.705691e-38 -0.29452583 0.95419472 0.05260152 0
0.12271395 -0.023569416 -0.11493477 1.6872519e-38 0.76610923 0.6426962 0.004270236 0
-0.031487118 -0.024148228 -0.11244518 1.8070701e-38 0.058156669 0.99817079 -0.016519241 0
-0.027916534 -0.024299851 -0.11179347 1.8070699e-38 0.047533214 0.99868894 -0.018998615 0
-0.022190757 -0.024531782 -0.11112064 1.8070699e-38 0.037247282 0.99844909 -0.041377295 0
-0.015080299 -0.024681263 -0.1109295 1.8070699e-38 0.062612817 0.99735659 -0.03687197 0
-0.009444071 -0.025139663 -0.11142872 1.7978865e-38 0.047001656 0.99885476 -0.0089446604 0
-0.002774304 -0.025014784 -0.11173786 1.7886311e-38 -0.049803324 0.99861312 -0.017072452 0
0.0038606438 -0.025008107 -0.11111856 1.7794114e-38 0.024807988 0.99481666 -0.098611996 0
0.0096200909 -0.024620848 -0.11109811 1.7793754e-38 -0.098243736 0.99294567 -0.066385187 0
0.015587762 -0.024392059 -0.11078173 1.7610081e-38 -0.011099836 0.99877983 -0.04812184 0
0.021467924 -0.024537276 -0.11045901 1.7610442e-38 0.042616908 0.9962126 -0.07579115 0
0.02628292 -0.024771711 -0.1111964 1.7518249e-38 0.023580061 0.99379992 -0.10865386 0
0.032638084 -0.024675159 -0.11074764 1.7517528e-38 -0.00024907113 0.99641788 -0.084565699 0
0.03966359 -0.024777306 -0.1106519 1.7425693e-38 -0.0048229825 0.99457526 -0.10390727 0
0.045313943 -0.024836378 -0.11059981 1.7425692e-38 0.02099782 0.99253142 -0.12016851 0
0.051598512 -0.025080699 -0.11132684 1.7425693e-38 0.0456414 0.99675655 -0.066281818 0
0.057188425 -0.025318325 -0.11184856 1.7425694e-38 0.056764398 0.99628353 -0.064784124 0
0.062658451 -0.025568124 -0.11114252 1.7241665e-38 0.12008482 0.97908932 -0.16420653 0
0.069001108 -0.025993794 -0.1117434 1.7149829e-38 -0.013445 0.99664217 -0.0807686 0
0.074946098 -0.025621168 -0.11017331 1.7057633e-38 -0.10113276 0.99434233 -0.032490633 0
0.080800019 -0.024912897 -0.11161415 1.7057632e-38 -0.13126495 0.99068093 -0.036344826 0
0.087080397 -0.024791017 -0.11053406 1.7057271e-38 -0.011362265 0.99908245 -0.041293964 0
0.093091555 -0.024738453 -0.11066101 1.705691e-38 0.050960075 0.99831754 0.027660809 0
0.099063478 -0.025086543 -0.11099347 1.7057269e-38 0.042718936 0.99296308 0.11045119 0
0.10523459 -0.024639517 -0.11104788 1.7057269e-38 -0.084747024 0.99449921 0.061557289 0
0.10923783 -0.02418028 -0.10931957 1.6964715e-38 -0.14705287 0.97780997 0.14920849 0
0.12324813 -0.025432821 -0.1107481 1.6780324e-38 0.31966338 0.91589445 0.24280147 0
0.12910993 -0.025395019 -0.11119315 1.6872516e-38 -0.049558986 0.99595588 0.074938193 0
0.13473029 -0.025860375 -0.11034155 1.6780322e-38 0.17561787 0.96361417 -0.20150968 0
0.14226952 -0.025922691 -0.10967089 1.6688128e-38 -0.2364348 0.94798374 -0.2131325 0
0.14713369 -0.025539946 -0.10970926 1.687216e-38 0.018071679 0.98593789 -0.16613223 0
0.151821 -0.025979901 -0.11042125 1.6872519e-38 0.14910716 0.98371023 -0.10040519 0
0.15746422 -0.026888974 -0.10846129 1.6872519e-38 0.19517989 0.97590005 -0.097590499 0
-0.4084281 -0.021232253 -0.11259399 1.7333132e-38 0.096176311 0.96175587 -0.25646788 0
-0.40400296 -0.021036586 -0.11140665 1.7425327e-38 -0.12282746 0.9921481 0.023572326 0
-0.39811125 -0.021987395 -0.11124437 1.7609718e-38 0.21757071 0.96791142 -0.12573978 0
-0.39339787 -0.023058329 -0.10989881 1.7609718e-38 0.18964884 0.98147869 -0.027070262 0
-0.38670787 -0.023250373 -0.11029258 1.7794468e-38 -0.053912099 0.99851096 -0.0083234869 0
-0.38071534 -0.022791781 -0.11105324 1.8070697e-38 -0.073520556 0.99729311 0.001112329 0
-0.37474313 -0.022461563 -0.11148293 1.8162892e-38 -0.075850338 0.99687201 -0.02220184 0
-0.36916074 -0.022041265 -0.11121317 1.8071057e-38 -0.058060225 0.99800175 -0.024926277 0
-0.36388797 -0.021796862 -0.11118761 1.8071057e-38 -0.049883019 0.99872035 0.0083283605 0
-0.3580651 -0.021350538 -0.11131407 1.8162892e-38 -0.099440232 0.99499798 -0.0095226821 0
-0.35159078 -0.021000886 -0.11123233 1.8162892e-38 -0.0055445847 0.99777383 -0.066456974 0
-0.34525615 -0.020951904 -0.1119536 1.8346923e-38 0.0073398552 0.99972904 -0.0220886 0
-0.33864337 -0.021051534 -0.11085458 1.4105923e-38 0.024954751 0.99968016 -0.0041015432 0
-0.33231616 -0.02116454 -0.1123288 1.8623509e-38 0.020813482 0.99964464 -0.016654914 0
-0.32643232 -0.021308679 -0.11055257 1.8255088e-38 0.033296343 0.99943441 -0.0047264495 0
-0.32076162 -0.021464283 -0.11137149 1.8071057e-38 0.033295721 0.99942344 -0.0066547198 0
-0.31502542 -0.021478618 -0.11077544 1.8071057e-38 -0.012483682 0.99936759 -0.03329391 0
-0.30937901 -0.021378832 -0.11062127 1.8162892e-38 -0.0030695272 0.99778301 -0.066480659 0
-0.30282199 -0.021430463 -0.11145657 1.8071055e-38 0.0041560899 0.99777657 -0.066518605 0
-0.29706746 -0.021453062 -0.11074616 1.8070697e-38 0.0082915565 0.99684834 -0.078896374 0
-0.2910932 -0.021490404 -0.11039543 1.7978861e-38 0.018992519 0.99728429 -0.071156956 0
-0.28502631 -0.021575984 -0.11052842 1.7887384e-38 0.004704508 0.99862289 -0.052251924 0
-0.27847898 -0.021654081 -0.11055877 1.7703353e-38 -2.1723765e-05 0.99954158 -0.030274641 0
-0.27299082 -0.021688109 -0.11137789 1.7795189e-38 0.011088638 0.9995538 -0.027734093 0
-0.26710266 -0.021677276 -0.11129071 1.7795189e-38 -0.01427032 0.99979669 -0.014249482 0
-0.261381 -0.021601645 -0.11055785 1.7886665e-38 -0.0033482308 0.99972314 -0.023290481 0
-0.25548163 -0.021629751 -0.11052839 1.779483e-38 0.026638927 0.99929088 -0.026609361 0
-0.24950521 -0.021693207 -0.11103809 1.7794829e-38 -6.1404976e-06 0.99956185 -0.029598152 0
-0.24275379 -0.021715203 -0.11130952 1.7886305e-38 0.0055453726 0.99992305 -0.01109076 0
-0.23770054 -0.021797663 -0.11156932 1.7702633e-38 0.011090234 0.99895334 -0.04437634 0
-0.23139562 -0.021846162 -0.11111405 1.779375e-38 0.033255097 0.99820679 -0.049772888 0
-0.22507766 -0.02189564 -0.110293 1.7702273e-38 0.011014666 0.9977299 -0.066435724 0
-0.21955206 -0.022101723 -0.11112383 1.7610077e-38 0.032997578 0.99724662 -0.06641078 0
-0.21294661 -0.022496259 -0.1115839 1.7701913e-38 0.071627662 0.99541986 -0.063315071 0
-0.20650455 -0.022819437 -0.11053321 1.7701913e-38 0.036971688 0.99914533 -0.018485816 0
-0.20076649 -0.022885367 -0.11099868 1.7701913e-38 -0.011091295 0.99987674 -0.011109718 0
-0.19547197 -0.022884488 -0.11126652 1.7609718e-38 0.0082975514 0.99872178 -0.04986025 0
-0.18965951 -0.022988725 -0.11119475 1.7701914e-38 0.020786002 0.99908257 -0.037444238 0
-0.18249762 -0.022959992 -0.11022597 1.779411e-38 -0.027748847 0.99947608 -0.016657906 0
-0.1771801 -0.022967281 -0.11145597 1.7794468e-38 0.0060420325 0.99952406 -0.030253783 0
-0.17020096 -0.022915628 -0.11121687 1.779447e-38 -8.1772714e-06 0.99966443 -0.025906246 0
-0.1645496 -0.022885503 -0.11001344 1.7703353e-38 -0.0083373692 0.99965316 -0.024979766 0
-0.15847614 -0.022859283 -0.11055126 1.7611158e-38 -1.4753577e-05 0.99920177 -0.039948817 0
-0.15276164 -0.022960173 -0.11114483 1.7611518e-38 0.018161723 0.99928117 -0.033275783 0
-0.14628829 -0.023064476 -0.11129824 1.7886665e-38 0.0073994249 0.99963677 -0.025913501 0
-0.1403642 -0.023190504 -0.11138577 1.7702634e-38 0.011104103 0.99992287 -0.0055504977 0
-0.13450919 -0.023239266 -0.11051016 1.7610439e-38 2.6177593e-06 0.9999547 0.0095214779 0
-0.12936172 -0.023242002 -0.11044449 1.7886305e-38 0.01427828 0.99979609 -0.014278246 0
-0.12359865 -0.023323979 -0.11106525 1.7518602e-38 0.0033626363 0.99990582 -0.01330715 0
-0.1166367 -0.023336207 -0.11110318 1.7426766e-38 0.014277259 0.99949133 -0.028515263 0
-0.11116717 -0.023398256 -0.11147489 1.7426766e-38 2.6301311e-06 0.9998185 -0.019052811 0
-0.10451553 -0.023411524 -0.11028466 1.7518962e-38 0.0083196936 0.99926364 -0.037455909 0
-0.099246092 -0.023524929 -0.11154988 1.7426408e-38 0.019940535 0.99838561 -0.053183537 0
-0.092832521 -0.023569979 -0.11028668 1.760972e-38 4.0869818e-06 0.99956274 -0.029567294 0
-0.087634757 -0.023534741 -0.11173225 1.7701917e-38 -0.0095079187 0.9995473 -0.028544657 0
-0.081304267 -0.023357704 -0.11020578 1.7701918e-38 -0.023337357 0.99917495 -0.033239663 0
-0.075347342 -0.023359824 -0.11128747 1.7794473e-38 -0.0030286256 0.99896443 -0.045396809 0
-0.068746179 -0.023257839 -0.11048637 1.7794112e-38 0.0095062759 0.99882674 -0.047483921 0
-0.062283535 -0.02336587 -0.11095016 1.7886668e-38 0.016622858 0.99881649 -0.045708757 0
-0.057279903 -0.023376271 -0.11173164 1.7978505e-38 -0.019028952 0.99941212 -0.028517045 0
-0.050919712 -0.023407932 -0.11055458 1.7978864e-38 0.01239555 0.99950111 -0.029049354 0
-0.045387626 -0.023393096 -0.11026295 1.8162896e-38 0.016123118 0.99863803 -0.049619906 0
-0.039804351 -0.023692576 -0.11089951 1.8070701e-38 0.052256644 0.99822843 -0.028447444 0
-0.034402329 -0.023937991 -0.1102969 1.8255451e-38 0.011088711 0.99992311 -0.0055443626 0
0.11056899 -0.023756489 -0.11222375 1.6964715e-38 -0.22841337 0.95082825 0.20917213 0
0.11682896 -0.022771569 -0.1115235 1.6964715e-38 -0.10366402 0.98286551 0.15241084 0
0.12170877 -0.022725334 -0.11199889 1.6688128e-38 0.56684625 0.661933 0.49043849 0
-0.026864616 -0.0241725 -0.10555104 1.8162895e-38 0.062329914 0.99774426 -0.024926888 0
-0.021252051 -0.024370929 -0.1052838 1.8162536e-38 0.016636573 0.99964511 -0.020806661 0
-0.014366208 -0.024649197 -0.10524084 1.8070342e-38 0.073677301 0.99722117 -0.011027354 0
-0.0082033295 -0.024934465 -0.10506371 1.8070342e-38 -0.05437455 0.99827236 -0.022265911 0
-0.0028310437 -0.024569767 -0.1061102 1.7886312e-38 0.0465656 0.99201804 -0.11718287 0
0.0028909396 -0.024911899 -0.10486063 1.7701921e-38 -0.020949872 0.9997738 0.0036735141 0
0.0095053809 -0.024277264 -0.10469352 1.7886311e-38 -0.094437748 0.99462807 -0.042385288 0
0.014358618 -0.024158403 -0.10455733 1.7794114e-38 0.027674012 0.99937129 -0.022161266 0
0.02075386 -0.024370534 -0.1052433 1.7794112e-38 0.022041818 0.99932015 -0.029552676 0
0.027519632 -0.024232138 -0.10582133 1.7610083e-38 -0.016622806 0.99764764 -0.066505194 0
0.032449745 -0.024244674 -0.1051304 1.7609725e-38 0.016590774 0.9967494 -0.078837685 0
0.038837314 -0.024312932 -0.10491252 1.7609365e-38 -0.0033364545 0.99839342 -0.056564871 0
0.045692079 -0.024132103 -0.10356484 1.7425693e-38 -4.4096316e-05 0.99858159 -0.053242896 0
0.051916182 -0.024576208 -0.1047686 1.7425692e-38 0.058849249 0.99608248 -0.066003457 0
0.057681754 -0.025067227 -0.1051918 1.7425694e-38 0.076727077 0.99377692 -0.080748141 0
0.063083127 -0.025188698 -0.10485157 1.7242022e-38 0.017939547 0.99941289 -0.029192131 0
0.068448216 -0.025407463 -0.10597615 1.7149829e-38 0.086314648 0.98235112 -0.16593982 0
0.074678175 -0.025334233 -0.1054466 1.7057633e-38 -0.04392454 0.99219894 -0.11666989 0
0.080108486 -0.025086796 -0.10472539 1.7149107e-38 0.038713019 0.99900746 -0.022029053 0
0.086029291 -0.024846237 -0.10543864 1.7241302e-38 -0.089798823 0.99521941 0.03839913 0
0.092508696 -0.02468043 -0.10464963 1.705691e-38 -0.0081452904 0.99862194 0.051843662 0
0.098601781 -0.02483907 -0.10476036 1.7149106e-38 0.0053251367 0.97544003 -0.22020087 0
0.10497584 -0.024647109 -0.10546541 1.705691e-38 -0.040008496 0.99919271 -0.0036331466 0
0.11176203 -0.024583559 -0.10549723 1.6964715e-38 -0.018753963 0.99396497 0.10808256 0
0.11685736 -0.024764612 -0.10499188 1.6780324e-38 0.10541657 0.9577744 0.2674987 0
0.12304065 -0.025636999 -0.10476298 1.6780322e-38 0.04782087 0.99850845 0.026342684 0
0.12897721 -0.025585981 -0.10505191 1.6688128e-38 -0.036308486 0.99793732 0.052941389 0
0.13600026 -0.02554751 -0.10447657 1.6688128e-38 0.024730397 0.99597073 0.086201623 0
0.14083791 -0.025487486 -0.1045728 1.6688128e-38 -0.05061214 0.99870002 -0.0060473536 0
0.14764236 -0.02510264 -0.10440873 1.6780324e-38 -0.061350863 0.99806339 0.010272293 0
0.15276518 -0.025606154 -0.10525393 1.6780324e-38 0.22423571 0.94189686 -0.25009719 0
0.15878344 -0.026143562 -0.10451217 1.6780324e-38 0.079622656 0.96189022 -0.26158646 0
0.16309692 -0.027231647 -0.10427096 1.6964715e-38 0.22711083 0.97332835 -0.032444242 0
-0.40448815 -0.020963142 -0.10468792 1.7425327e-38 -0.12745866 0.98888493 -0.076556705 0
-0.39866278 -0.021057926 -0.1048846 1.7425327e-38 0.19104289 0.97786027 -0.085392132 0
-0.39223874 -0.022542184 -0.1046048 1.7701914e-38 0.20447555 0.97287846 -0.10815409 0
-0.3874577 -0.023155401 -0.10494144 1.7886305e-38 -0.011429815 0.99693656 -0.077374659 0
-0.38009742 -0.022745835 -0.1046896 1.8070697e-38 -0.073879577 0.99680263 -0.03043418 0
-0.3755205 -0.022354921 -0.10394666 1.8162892e-38 -0.071930192 0.99728125 -0.016006872 0
-0.36974692 -0.022097893 -0.10561931 1.8255088e-38 -0.07712093 0.99695724 -0.011339798 0
-0.36347842 -0.02163808 -0.10519243 1.8163252e-38 -0.060334917 0.9978053 -0.027282724 0
-0.35632789 -0.021140592 -0.10548514 1.8162892e-38 -0.066470861 0.99769962 -0.013302968 0
-0.35019299 -0.020737933 -0.10531739 1.8255088e-38 -0.043238238 0.99892563 -0.01667067 0
-0.34483632 -0.020592239 -0.10513747 1.8346923e-38 0.011112259 0.99925619 -0.03692729 0
-0.33868602 -0.020814739 -0.10536446 1.5487778e-38 0.037373897 0.99784112 -0.054002017 0
-0.33306602 -0.021021232 -0.10556754 1.8162892e-38 0.0036806578 0.9993093 -0.03697861 0
-0.32653162 -0.021137033 -0.10513461 1.8162892e-38 0.036940962 0.99849081 -0.040637672 0
-0.32117623 -0.021308368 -0.1051144 1.8162892e-38 0.0042081815 0.9994368 -0.03329175 0
-0.31543541 -0.021185335 -0.10539603 1.8255088e-38 -0.026577987 0.9972105 -0.069747925 0
-0.30843699 -0.020930037 -0.1044729 1.8070697e-38 0.0055839699 0.9992342 -0.038726859 0
-0.30231714 -0.021079035 -0.10669687 1.8162892e-38 0.005503674 0.99697715 -0.07749977 0
-0.29690301 -0.02095739 -0.10420939 1.8070697e-38 -1.6337679e-05 0.99982971 -0.018451896 0
-0.29119107 -0.021106241 -0.1047118 1.8071057e-38 0.024183923 0.99805701 -0.05742256 0
-0.28538415 -0.021206426 -0.1044935 1.7978861e-38 0.022145264 0.99754375 -0.066454209 0
-0.27943984 -0.021337288 -0.10447587 1.8071057e-38 0.025830299 0.99720472 -0.070111141 0
-0.27250871 -0.021394521 -0.10446995 1.7979221e-38 0.0082922084 0.99802107 -0.062331524 0
-0.26698947 -0.021468576 -0.10525934 1.7979221e-38 -0.014324469 0.99827886 -0.056870066 0
-0.26069435 -0.021400431 -0.10431575 1.7702994e-38 -2.6102292e-05 0.9980917 -0.06174871 0
-0.25570124 -0.021433091 -0.10511846 1.779483e-38 0.014780452 0.99906433 -0.040644526 0
-0.24862711 -0.021522032 -0.10501964 1.7886305e-38 0.0074229673 0.99953389 -0.029611591 0
-0.24248138 -0.021606326 -0.10515054 1.779447e-38 0.0047604805 0.99970609 -0.023770843 0
-0.23719212 -0.021626104 -0.10567468 1.7886305e-38 0.0066197412 0.99977988 -0.01991044 0
-0.23065972 -0.02166611 -0.10458495 1.7702634e-38 0.0047607222 0.99998862 1.8462983e-05 0
-0.22446448 -0.021699233 -0.10543993 1.7610439e-38 0.0036845193 0.9996587 -0.025865056 0
-0.21929984 -0.021713227 -0.10447259 1.779411e-38 0.024961304 0.99882287 -0.041589912 0
-0.2136611 -0.022029635 -0.10512102 1.779375e-38 0.070354119 0.99511993 -0.069185175 0
-0.20741569 -0.02250248 -0.10476055 1.7702274e-38 0.12445598 0.98520923 -0.11778569 0
-0.20088626 -0.022719588 -0.10452153 1.779411e-38 0.014798798 0.99964404 -0.022201305 0
-0.19402099 -0.022746373 -0.10500407 1.7794108e-38 -0.012505189 0.99988711 -0.0083260322 0
-0.18868633 -0.022765376 -0.10459962 1.7702273e-38 0.022147812 0.99937099 -0.027696313 0
-0.18358646 -0.022854328 -0.1050749 1.779411e-38 0.0066568977 0.99942303 -0.033306688 0
-0.1773085 -0.022813641 -0.10582291 1.7702273e-38 -0.014804712 0.99986291 -0.007403546 0
-0.17084627 -0.022713464 -0.1041486 1.7886305e-38 0.014819155 0.99955469 -0.025900682 0
-0.16482703 -0.022764254 -0.10402308 1.7794829e-38 -0.019031912 0.99977356 -0.0095186168 0
-0.15896876 -0.022638457 -0.10482206 1.7702993e-38 -0.013170181 0.99745011 -0.070141539 0
-0.15358946 -0.022672426 -0.10418681 1.7611158e-38 0.030082552 0.99641043 -0.079126991 0
-0.14613788 -0.022694014 -0.10448501 1.7611158e-38 -0.0297157 0.9912051 -0.12895493 0
-0.14103718 -0.022842851 -0.10477787 1.7611158e-38 0.033047091 0.99413222 -0.10300062 0
-0.13552423 -0.023050683 -0.10579273 1.7519322e-38 0.0083621982 0.99828196 -0.057992857 0
-0.12971328 -0.022799334 -0.10336932 1.7610439e-38 -0.0048759035 0.99641526 -0.084456071 0
-0.12319593 -0.022945564 -0.10518917 1.7610797e-38 -0.0066534285 0.99407053 -0.10853351 0
-0.11750336 -0.022920091 -0.10508431 1.7426766e-38 -2.0665353e-05 0.99809527 -0.061692048 0
-0.11106758 -0.023009634 -0.10543664 1.7426766e-38 0.0066428105 0.99628901 -0.08581426 0
-0.10585346 -0.023079241 -0.10539008 1.7426766e-38 0.046404988 0.99455249 -0.093337968 0
-0.099035665 -0.023242189 -0.1054133 1.7334213e-38 0.029011788 0.99871689 -0.041507505 0
-0.092632115 -0.023363955 -0.10525629 1.7517884e-38 -8.2468265e-05 0.9993006 -0.037394378 0
-0.086529627 -0.023293337 -0.1048596 1.761008e-38 -0.0095208157 0.99859309 -0.05216578 0
-0.081424639 -0.023163056 -0.10462388 1.7609723e-38 -0.02665282 0.99962258 -0.0066604461 0
-0.075220183 -0.023069074 -0.10488947 1.7610081e-38 -0.026617456 0.99884713 -0.039950151 0
-0.069739953 -0.023118811 -0.10551415 1.7794473e-38 0.011017235 0.99977028 -0.018384675 0
-0.063114055 -0.023208642 -0.10525697 1.7886668e-38 0.0055440902 0.99923033 -0.038833287 0
-0.056867715 -0.023122746 -0.10487613 1.8070341e-38 -0.0090781301 0.99878722 -0.048390884 0
-0.051525757 -0.023209726 -0.10472408 1.788667e-38 0.027715439 0.99886197 -0.038813885 0
-0.044778399 -0.023238452 -0.10494162 1.8070699e-38 0.018437335 0.9994961 -0.025839509 0
-0.039095555 -0.023428213 -0.10530574 1.8163255e-38 0.053930275 0.99833173 -0.020620698 0
-0.032833174 -0.02382075 -0.1043551 1.7978864e-38 0.062000714 0.99704278 -0.045405272 0
0.029361453 -0.023975462 -0.10262729 1.7610084e-38 -3.6893289e-05 0.99944615 -0.033277933 0
0.11883914 -0.023909533 -0.10664856 1.6688128e-38 0.32213315 0.84393775 0.42895141 0
-0.025703469 -0.02407431 -0.099974759 1.8254732e-38 0.12086627 0.98877722 -0.087811477 0
-0.020380339 -0.024255028 -0.099610686 1.8070341e-38 0.024804514 0.99938476 -0.024795968 0
-0.014778813 -0.024598746 -0.099573329 1.7978507e-38 0.082750894 0.99653566 0.0083089219 0
-0.0085582817 -0.02478935 -0.09831544 1.788703e-38 -0.0589564 0.99815094 -0.014788008 0
-0.0023586659 -0.024668962 -0.099481404 1.788631e-38 -0.026496934 0.99909633 0.033235662 0
0.0031936138 -0.024491817 -0.099152371 1.7794475e-38 -0.023608064 0.99524927 -0.094453909 0
0.0093124108 -0.024123253 -0.099609308 1.7794474e-38 -0.049646098 0.99834424 -0.029053988 0
0.014933811 -0.024104634 -0.098843254 1.7886668e-38 0.018908678 0.99941593 -0.02846515 0
0.020625746 -0.024116125 -0.099187694 1.770192e-38 -0.023776421 0.99880099 -0.042794384 0
0.025629159 -0.024063978 -0.10114459 1.7610081e-38 -0.03325507 0.99765378 -0.059841491 0
0.038715884 -0.024038719 -0.099995233 1.7609724e-38 -0.008346566 0.99909854 -0.041622084 0
0.046613228 -0.024017045 -0.10029587 1.7425693e-38 0.033290215 0.99889159 -0.033277888 0
0.050873123 -0.024193157 -0.099030927 1.7517889e-38 0.058054812 0.99726862 -0.045659896 0
0.05644026 -0.024517991 -0.098456331 1.7425693e-38 0.016298428 0.9976787 -0.066118009 0
0.06347587 -0.024587147 -0.097878203 1.7333497e-38 0.052979488 0.99414092 -0.094218053 0
0.06889572 -0.02488807 -0.099455066 1.7333497e-38 -0.024949439 0.99520171 -0.094609953 0
0.074874409 -0.024961581 -0.099059068 1.7149107e-38 0.021701682 0.99903005 -0.038314853 0
0.080582604 -0.024950886 -0.099036634 1.7149106e-38 -0.033297073 0.99935681 -0.013315861 0
0.086811088 -0.024873018 -0.098680533 1.7241302e-38 -0.0032867591 0.99972415 -0.023255523 0
0.093348742 -0.024629015 -0.098701254 1.705691e-38 -0.032852154 0.99937201 0.013279406 0
0.098609105 -0.024602814 -0.10032308 1.705691e-38 0.06874001 0.99628866 -0.051804304 0
0.10491274 -0.024749547 -0.099446818 1.705691e-38 -0.029227952 0.99880981 0.039047513 0
0.11104986 -0.024807571 -0.098965995 1.6780324e-38 0.049448118 0.99822879 0.033078894 0
0.11610396 -0.02572106 -0.099153943 1.6688128e-38 0.26738325 0.95389253 0.13636389 0
0.12319133 -0.025996495 -0.099225514 1.6595932e-38 -0.037775166 0.99826682 0.045127038 0
0.12990394 -0.025996068 -0.09833388 1.6503737e-38 -0.045843538 0.99887389 0.0122192 0
0.13599521 -0.025659151 -0.098365933 1.6595932e-38 0.015833111 0.99987447 0.00051041099 0
0.1416367 -0.025560759 -0.098279744 1.6503735e-38 -0.044355337 0.9976061 -0.053053394 0
0.1468266 -0.025538146 -0.099683911 1.6595932e-38 -0.090774581 0.98502809 0.14655901 0
0.153312 -0.025369013 -0.098362915 1.6688488e-38 0.03099576 0.99060899 0.13316543 0
0.15894893 -0.025608731 -0.09910433 1.6780324e-38 0.11590448 0.99098206 -0.067235515 0
0.16422923 -0.025665844 -0.097892299 1.6780324e-38 -0.10637602 0.98239672 -0.15356009 0
0.16992894 -0.025641492 -0.09877298 1.6872519e-38 -0.1420373 0.96929282 -0.20074064 0
-0.40272772 -0.020788971 -0.099987268 1.7517523e-38 -0.35550749 0.92842138 0.10792702 0
-0.39961696 -0.02057972 -0.099347576 1.7517523e-38 0.074961029 0.99643505 -0.038704284 0
-0.39217752 -0.022266997 -0.098951884 1.7701914e-38 0.24126884 0.96860182 -0.059998866 0
-0.3856802 -0.02284419 -0.099091113 1.7886665e-38 -0.055269767 0.99841028 0.01105391 0
-0.38043511 -0.022587135 -0.09864334 1.7978861e-38 -0.076696992 0.99664187 -0.028679267 0
-0.37597716 -0.022423321 -0.098280653 1.8163251e-38 -0.070232764 0.99736679 -0.018077638 0
-0.36888465 -0.022051673 -0.09928143 1.8255448e-38 -0.080960311 0.9965474 0.018401185 0
-0.36286414 -0.021421606 -0.098094702 1.8163252e-38 -0.08849173 0.99607688 -2.4239422e-05 0
-0.35800812 -0.0211563 -0.099192038 1.8347283e-38 -0.046450354 0.99883151 -0.01334418 0
-0.35180819 -0.020817213 -0.10005092 1.8347283e-38 -0.088512011 0.99601376 0.011052574 0
-0.34459963 -0.020397743 -0.097820997 1.6872153e-38 -0.013294673 0.99946147 -0.029999455 0
-0.33844578 -0.020541131 -0.098800473 1.5027518e-38 0.029546764 0.99781507 -0.059093323 0
-0.33283466 -0.020784801 -0.099590987 1.8254728e-38 0.033196516 0.99791181 -0.055406637 0
-0.32753071 -0.02079615 -0.09890072 1.8255088e-38 0.020717293 0.99729747 -0.070488289 0
-0.32118183 -0.020903967 -0.098968357 1.8347283e-38 -0.016545113 0.9940688 -0.10748699 0
-0.31473488 -0.020688042 -0.09888915 1.8255088e-38 -0.013175565 0.9942916 -0.10588019 0
-0.30853146 -0.020695597 -0.098485574 1.8070697e-38 0.016461853 0.99608505 -0.086854011 0
-0.30323386 -0.020883363 -0.099595249 1.8070697e-38 -1.1369524e-05 0.99944788 -0.033225123 0
-0.29763693 -0.02091104 -0.09841007 1.8071057e-38 0.033168167 0.9979924 -0.053954951 0
-0.29102173 -0.020952979 -0.098784141 1.8163251e-38 2.0909774e-06 0.99999321 -0.0036825191 0
-0.28417033 -0.020967484 -0.099046499 1.7978861e-38 -0.0041657239 0.99943674 -0.033298332 0
-0.27814838 -0.020935023 -0.098358251 1.8163252e-38 0 0.99944675 -0.033259634 0
-0.27252522 -0.021092419 -0.099210322 1.8071057e-38 0.020698819 0.9969908 -0.074705929 0
-0.2673251 -0.021001855 -0.098869033 1.8071057e-38 -3.1368763e-05 0.99875522 -0.049879871 0
-0.26091516 -0.021084737 -0.099216402 1.7887743e-38 -0.004160305 0.99929345 -0.037355557 0
-0.25427514 -0.021097647 -0.098589689 1.7979218e-38 0.011033459 0.99568307 -0.092159748 0
-0.24932544 -0.021176498 -0.099017486 1.7887024e-38 0.029041722 0.9964633 -0.078851081 0
-0.24359858 -0.021418426 -0.099606611 1.779447e-38 0.014243458 0.99853259 -0.052246772 0
-0.23759691 -0.021438655 -0.099115603 1.779447e-38 -0.0047669532 0.99907243 -0.042796753 0
-0.23145299 -0.021480637 -0.099008761 1.779447e-38 0.019955609 0.99838281 -0.053231273 0
-0.22483115 -0.021638427 -0.098690934 1.779447e-38 -0.014282672 0.99989802 -1.5838403e-05 0
-0.21888179 -0.021644395 -0.10023169 1.7702274e-38 0.020816369 0.99964482 -0.016641099 0
-0.21219833 -0.021793146 -0.098312899 1.7702274e-38 0.033313297 0.99939972 -0.0095015308 0
-0.20634905 -0.02213569 -0.099899061 1.7610437e-38 0.08299429 0.99341625 -0.078968346 0
-0.20095655 -0.022520809 -0.099771224 1.7794108e-38 0.063715294 0.9901917 -0.12434167 0
-0.19529019 -0.022662669 -0.099089168 1.7701914e-38 0.01426987 0.9991768 -0.037974879 0
-0.18940617 -0.022709709 -0.098679945 1.779411e-38 -6.674522e-06 0.99977529 -0.021196933 0
-0.18231332 -0.022691229 -0.098737419 1.7886305e-38 0.0083104596 0.99954152 -0.02911431 0
-0.17629336 -0.022666296 -0.098124839 1.7886665e-38 -0.049430095 0.99552989 -0.080479801 0
-0.17119043 -0.022503106 -0.098627962 1.7886305e-38 -0.014606108 0.99669629 -0.079894334 0
-0.16464819 -0.022498908 -0.098985419 1.7886665e-38 -0.070266441 0.98925829 -0.12818232 0
-0.15844882 -0.022291072 -0.099183209 1.7702993e-38 -0.014045939 0.99843097 -0.054206464 0
-0.1529246 -0.02223577 -0.098668322 1.779483e-38 0.0044931131 0.99765569 -0.068286091 0
-0.14785434 -0.022364059 -0.099183798 1.7702994e-38 0.042191762 0.99714011 -0.062701546 0
-0.14071861 -0.022491308 -0.098787636 1.7702993e-38 0.031532899 0.99826461 -0.049733095 0
-0.13497335 -0.022675989 -0.099818662 1.7610797e-38 0.011100755 0.99950022 -0.029598568 0
-0.12928781 -0.022636492 -0.097606979 1.7610797e-38 -0.007038014 0.99922866 -0.038634278 0
-0.12278839 -0.022619566 -0.098875202 1.7610439e-38 0.0041524949 0.99999136 0 0
-0.11708158 -0.022751182 -0.099069253 1.7426766e-38 0.020814514 0.99974877 0.0083202068 0
-0.11121637 -0.022786573 -0.099373601 1.7427125e-38 -0.020815076 0.99970531 0.012489929 0
-0.10458672 -0.022798473 -0.098686896 1.7518243e-38 0.014700955 0.99989194 0.00019178093 0
-0.09919887 -0.022913001 -0.099083453 1.7334572e-38 0.01241114 0.99822819 -0.058192506 0
-0.09331879 -0.022936134 -0.098804139 1.7517883e-38 -0.01475706 0.99855596 -0.0516546 0
-0.087021634 -0.022930784 -0.098966666 1.761008e-38 0.0036920679 0.9988454 -0.047897894 0
-0.080766402 -0.022954624 -0.099434651 1.7609721e-38 0.0074060238 0.99914682 -0.040629189 0
-0.075005434 -0.02296182 -0.09934859 1.7794473e-38 -0.012489617 0.99961019 -0.024969993 0
-0.068335488 -0.02294388 -0.09969911 1.7794473e-38 0.016590863 0.99881542 -0.045743566 0
-0.06350711 -0.022924444 -0.099517338 1.7886308e-38 -0.016666425 0.99861562 -0.049889326 0
-0.056506835 -0.022842886 -0.098851971 1.7978864e-38 0.0033144008 0.99990648 -0.013268773 0
-0.050039541 -0.022970965 -0.098294675 1.7886668e-38 0.022212556 0.9997533 -6.1246028e-05 0
-0.045029465 -0.023105178 -0.099149525 1.7886668e-38 0.02663191 0.9995563 -0.013339797 0
-0.038786139 -0.023288578 -0.098004542 1.807106e-38 0.060697556 0.9963035 -0.060787454 0
-0.033159554 -0.023644671 -0.099090703 1.807106e-38 0.033313539 0.99940002 0.009484333 0
-0.027717169 -0.023760531 -0.097874567 1.8070701e-38 0.037858799 0.99923778 -0.0095177041 0
0.0093222987 -0.024 -0.097018123 1.7886668e-38 0 1 0 0
0.017251875 -0.024 -0.096436851 1.7794475e-38 0 1 0 0
0.023420651 -0.023950048 -0.096922085 1.7424974e-38 -0.033296317 0.99889076 -0.033296317 0
0.027261185 -0.023859546 -0.097733922 1.7609723e-38 -0.01666097 0.99910653 -0.038838644 0
0.033546302 -0.023865839 -0.098706275 1.751753e-38 0.016581442 0.99910992 -0.038785938 0
0.040788256 -0.023901809 -0.09762264 1.7609364e-38 0 0.99875325 -0.049919125 0
0.044517856 -0.023955606 -0.098174185 1.7610084e-38 0.016657375 0.99972248 -0.016657375 0
0.17387475 -0.023644365 -0.096521452 1.6964715e-38 -0.38998058 0.86953384 0.30302826 0
-0.019780636 -0.024142915 -0.092957892 1.7979588e-38 0.066368163 0.99779522 3.6091347e-05 0
-0.014815629 -0.024616592 -0.09329889 1.7703004e-38 0.078749217 0.99675763 -0.016518172 0
-0.0098097092 -0.024660187 -0.092793554 1.7703001e-38 -0.022102224 0.99893534 -0.040492669 0
-0.0024880294 -0.024708828 -0.0928571 1.7885952e-38 0.060878575 0.99813032 -0.0054297484 0
0.0027294685 -0.024479924 -0.093984656 1.7794474e-38 -0.098832756 0.99483085 0.023318216 0
0.0085576326 -0.024021825 -0.091438033 1.7609724e-38 -0.033277892 0.99944609 0 0
0.013825104 -0.024041554 -0.092142738 1.7702281e-38 -0.011112453 0.99993831 3.076408e-05 0
0.052174609 -0.024069831 -0.094565235 1.7610084e-38 0.022137649 0.99821681 -0.055435963 0
0.058072045 -0.024134628 -0.093629606 1.7425693e-38 0.024700271 0.99626267 -0.082768738 0
0.063131206 -0.024195377 -0.092382066 1.7333497e-38 0.028515069 0.99846244 -0.047535624 0
0.068655744 -0.024493003 -0.092989318 1.7333497e-38 0.061952673 0.99753302 -0.033011243 0
0.075626493 -0.024751207 -0.092804477 1.705691e-38 -0.00036325716 0.99965352 -0.026320126 0
0.081015095 -0.024821755 -0.093376815 1.7241302e-38 -2.3190773e-06 0.99957645 -0.029102832 0
0.086618796 -0.024755385 -0.092270665 1.705691e-38 -0.0047726175 0.9995814 -0.028536309 0
0.0928763 -0.024893384 -0.092283458 1.7149106e-38 -0.0074378019 0.99994481 0.007421528 0
0.098759249 -0.024619509 -0.093428053 1.7149106e-38 -0.029202823 0.99843079 0.047782436 0
0.10462823 -0.024673035 -0.094010472 1.705691e-38 0.04978719 0.9985137 -0.022170877 0
0.11165254 -0.025340537 -0.092664666 1.6688128e-38 0.1903919 0.97800946 0.085137166 0
0.11710615 -0.025707165 -0.093126208 1.6688128e-38 0.045737628 0.99800217 -0.043587241 0
0.12251415 -0.025603782 -0.092232287 1.6595932e-38 -0.01317423 0.99737841 -0.071152635 0
0.12820128 -0.025817428 -0.092777222 1.6595932e-38 0.033066586 0.99841303 -0.045585711 0
0.1353904 -0.025856264 -0.092687987 1.6503737e-38 -0.005882781 0.99997401 0.0041816654 0
0.14063145 -0.025767133 -0.09355519 1.6688128e-38 -0.061295193 0.99629921 0.060256209 0
0.14731856 -0.02580481 -0.092281811 1.6503735e-38 0.01254703 0.9983815 -0.055468846 0
0.15359813 -0.025682399 -0.092434928 1.6595932e-38 -0.10041353 0.99454844 0.028116595 0
0.15912494 -0.025356315 -0.09345042 1.6688128e-38 -0.052755967 0.99776047 -0.041120496 0
0.16505776 -0.024967089 -0.093021773 1.6688128e-38 -0.11690947 0.99016774 -0.076811723 0
0.17152372 -0.024835244 -0.092268914 1.6872519e-38 0.098880827 0.99386221 -0.049603589 0
0.17738983 -0.024673292 -0.09205018 1.6964715e-38 -0.12933488 0.99128884 -0.02487715 0
0.18170039 -0.024214551 -0.092353165 1.6688128e-38 -0.15345721 0.98809254 -0.011128893 0
-0.40248436 -0.021364413 -0.093329951 1.779411e-38 -0.45798999 0.88776642 -0.045999978 0
-0.39893776 -0.020663828 -0.093379475 1.7701914e-38 -0.036122534 0.99908721 0.022799356 0
-0.39266178 -0.021673584 -0.092827469 1.7886305e-38 0.23959644 0.96953917 -0.050867073 0
-0.3872692 -0.022745421 -0.092606142 1.7978501e-38 0.10790231 0.99198389 -0.065764323 0
-0.38099808 -0.022563925 -0.092691191 1.7978861e-38 -0.041597597 0.99911022 0.0069561996 0
-0.37486684 -0.022274865 -0.092610247 1.8255447e-38 -0.023886157 0.999713 -0.0018672592 0
-0.36859718 -0.022018567 -0.092517056 1.8347642e-38 -0.05540536 0.99821728 -0.022192799 0
-0.36369169 -0.021577407 -0.091920197 1.8255088e-38 -0.10339886 0.99442649 0.020602828 0
-0.35744089 -0.021035079 -0.092208371 1.8439479e-38 -0.066234969 0.99760526 -0.01991654 0
-0.35064134 -0.020706417 -0.093436144 1.8255448e-38 -0.060456004 0.99812949 -0.0090894913 0
