# .PCD v0.7 - Point Cloud Data file format
VERSION 0.7
FIELDS x y z rgb normal_x normal_y normal_z curvature
SIZE 4 4 4 4 4 4 4 4
TYPE F F F F F F F F
COUNT 1 1 1 1 1 1 1 1
WIDTH 547
HEIGHT 1
VIEWPOINT 0 0 0 1 0 0 0
POINTS 547
DATA ascii
-0.21259554 0.016607914 0.014785972 1.0047908e-38 0.11998622 0.990381 -0.068910979 0
-0.20663217 0.015116703 0.015245512 1.1154969e-38 0.53081888 0.81756806 -0.22319004 0
-0.20293544 0.012308691 0.016263757 1.2722651e-38 0.74092489 0.60199785 -0.29770622 0
-0.23660402 0.018976312 0.015049441 1.2260605e-38 -0.30733612 0.94060647 -0.14423624 0
-0.23061295 0.019567804 0.014768521 9.679486e-39 0.1044964 0.98955667 -0.099288046 0
-0.22590573 0.018537076 0.015422243 1.0878382e-38 0.20051767 0.9796775 0.0049563269 0
0.25512192 -0.032252099 0.021253403 8.3121101e-40 0.4490093 0.62635273 0.63723856 0
0.26043212 -0.034166973 0.020771988 5.5534439e-40 0.27412099 0.81228262 0.51483446 0
0.26713875 -0.034549348 0.021150777 2.7839737e-40 -0.13254201 0.9658953 0.22243868 0
0.27195311 -0.033526279 0.020294618 7.3901398e-40 -0.19356802 0.96610475 0.17080107 0
0.27918774 -0.032133367 0.020253934 1.4762203e-39 -0.26148757 0.8237707 0.50301689 0
0.28423741 -0.032896131 0.021243295 3.5970757e-39 -0.42040884 0.47117835 0.77540141 0
0.42820531 -0.031259503 0.01891676 1.8440208e-38 0.36963087 0.88920581 -0.2696034 0
0.43235603 -0.031606413 0.023243995 1.7610804e-38 0.37641269 0.91413569 -0.15056397 0
0.081616856 -0.024202107 0.020532103 1.5305193e-38 0.055364106 0.99808323 -0.027650213 0
0.087321803 -0.024281736 0.021010578 1.5397386e-38 -0.012456467 0.99988717 0.0083888946 0
0.092451595 -0.024184098 0.021803286 1.5305191e-38 -0.016649874 0.99818546 -0.057866979 0
0.098162897 -0.024071852 0.021243444 1.5489583e-38 -0.03885138 0.99918336 0.011103045 0
0.10497253 -0.024088025 0.0198578 1.5398109e-38 0.033160042 0.99938983 -0.010979977 0
0.11028537 -0.024270777 0.019987464 1.5950561e-38 0.033298649 0.99944544 2.0732239e-05 0
0.1168679 -0.024443017 0.020891162 1.622715e-38 0.030265154 0.99931741 -0.021184009 0
0.12315148 -0.024587931 0.020828465 1.6319345e-38 0.044365507 0.99895519 -0.010969871 0
0.12839392 -0.024604024 0.021446869 1.6042758e-38 0.010884004 0.99919266 -0.038673878 0
0.13481785 -0.024445491 0.021053744 1.6134953e-38 -0.06640815 0.99645412 -0.051662646 0
0.14075688 -0.024208253 0.021047765 1.5950563e-38 -0.033248663 0.99754 -0.061712284 0
0.14625105 -0.024080792 0.020396197 1.5950563e-38 -0.0083763599 0.99827337 -0.058138326 0
0.15229784 -0.024116632 0.020221826 1.5489585e-38 -0.0047455234 0.99980772 -0.019026967 0
0.15941635 -0.024057377 0.019683231 1.5489583e-38 -0.046339788 0.99714071 -0.059690572 0
0.25080127 -0.026099851 0.022790631 6.4717849e-40 0.84370112 0.10128874 0.52717066 0
0.25494388 -0.027244212 0.019810691 8.3156975e-40 0.52983022 -0.031360362 0.84752375 0
0.2590268 -0.026932582 0.018235544 9.2304791e-40 0.22046743 -0.14602838 0.9644013 0
0.28020394 -0.025898688 0.020210428 2.1215897e-39 -0.63369846 -0.54040188 0.55352694 0
0.28369746 -0.028141476 0.022137785 4.7034233e-39 -0.6904152 -0.49553502 0.52704066 0
0.29116887 -0.025590239 0.021175185 1.0880523e-38 0.31501839 0.94908094 0.0029607948 0
0.29732591 -0.026108429 0.020613037 1.327725e-38 -0.020363977 0.99354857 0.11156388 0
0.30320591 -0.02586736 0.021056047 1.4476153e-38 -0.049606528 0.99657798 0.066117838 0
0.30929723 -0.025547983 0.020285355 1.4936771e-38 -0.022122113 0.99920303 0.03322551 0
0.31542501 -0.025327712 0.021237101 1.5305554e-38 -0.098572657 0.99375015 0.052383736 0
0.32142189 -0.024696354 0.020427557 1.5673976e-38 -0.049862351 0.99861783 0.016620709 0
0.3263638 -0.024604578 0.021184659 1.5674336e-38 8.649224e-05 0.99981987 0.018980958 0
0.33299819 -0.024450704 0.020873338 1.6134954e-38 -0.019363828 0.99975222 0.010976464 0
0.33929518 -0.024441356 0.020936258 1.6503737e-38 0.022270367 0.99961549 0.016515814 0
0.34452432 -0.024480402 0.02157321 1.6688128e-38 -0.013309502 0.9998225 0.013331671 0
0.35015047 -0.024441183 0.020822601 1.6872519e-38 -0.0074184365 0.9998017 -0.018479504 0
0.35713378 -0.024384765 0.020473376 1.705655e-38 -0.02499135 0.99965298 0.008330428 0
0.36275643 -0.024236904 0.021494687 1.7240943e-38 -0.018528666 0.99958241 -0.022172783 0
0.36870894 -0.024213506 0.019884735 1.7149107e-38 -0.018503362 0.99982196 0.0037039458 0
0.37514627 -0.024216242 0.021811582 1.7425334e-38 0.024975339 0.99967933 -0.0041770716 0
0.38078552 -0.024398213 0.021026105 1.7425693e-38 0.018477384 0.99958289 0.022194492 0
0.38726202 -0.024517871 0.020698268 1.7794475e-38 0.03329755 0.99919891 0.022197334 0
0.39285314 -0.024803465 0.021572977 1.7978509e-38 0.051657725 0.99823058 0.029446978 0
0.39940208 -0.024937794 0.020665472 1.8070704e-38 -0.019944193 0.99269265 0.11901066 0
0.40560505 -0.024810638 0.020829683 1.8347651e-38 7.7098637e-05 0.99551326 0.094621569 0
0.41155115 -0.025463024 0.020766865 1.8439846e-38 0.36581504 0.9156034 -0.16688249 0
0.41707376 -0.027111972 0.020800589 1.8532764e-38 0.28512204 0.95610201 0.067634083 0
0.42244652 -0.029005783 0.020728154 1.8440567e-38 0.32574368 0.94298619 0.068322904 0
-0.36672425 -0.020681735 0.020628411 2.1114238e-38 0.36210272 0.90526181 -0.22222215 0
-0.36366162 -0.021110769 0.021386223 2.1114238e-38 -0.024462659 0.99832112 0.052501876 0
-0.35765117 -0.020870652 0.021556994 2.111424e-38 0.11734282 0.99218339 -0.042459156 0
-0.35104436 -0.022108532 0.02116047 2.0468509e-38 0.021103522 0.999322 0.030166533 0
-0.3449893 -0.021499945 0.020215571 1.9361078e-38 -0.05142843 0.99861598 0.01101033 0
-0.3381615 -0.021126205 0.021979079 2.1390105e-38 -0.10594084 0.99417466 0.019831048 0
-0.33248878 -0.020445039 0.022045484 2.1758888e-38 -0.10879209 0.99388486 0.01890162 0
-0.32735759 -0.019923097 0.021027876 2.1667053e-38 -0.099435128 0.99499935 0.0094275009 0
-0.32121152 -0.0194446 0.020774085 2.1667053e-38 -0.061690643 0.99791473 0.018985255 0
-0.31576526 -0.019315528 0.020179057 2.1482661e-38 -0.022199109 0.99961507 -0.016640209 0
-0.30998886 -0.019261004 0.021339133 2.1759248e-38 -0.020815903 0.99970531 -0.012489457 0
-0.30294582 -0.019171311 0.021259626 2.1297908e-38 -0.014246725 0.99971831 0.01898291 0
-0.2967968 -0.019127127 0.020805487 2.0468509e-38 0.023747193 0.99953818 -0.018958881 0
-0.29122573 -0.019123804 0.021475228 1.9730947e-38 -0.04272956 0.99898648 0.014147026 0
-0.28512698 -0.018858192 0.020562302 1.9362164e-38 -0.060870085 0.99811155 0.0082564186 0
-0.2792024 -0.018469205 0.020864392 1.9177773e-38 -0.023699565 0.99967325 -0.0095757004 0
-0.27447146 -0.018321263 0.020333719 1.9362523e-38 -0.12127238 0.99241626 -0.020075278 0
-0.19265385 -0.018275095 0.020983309 1.0418459e-38 0.62771487 0.75087166 -0.20534293 0
-0.18911503 -0.019673551 0.021317281 1.2538959e-38 0.26034561 0.96482116 -0.036610324 0
-0.18286289 -0.019591179 0.020544596 1.6042393e-38 -0.10577086 0.99381316 0.033880994 0
-0.17794253 -0.019074064 0.020408392 1.7332776e-38 -0.066212043 0.99682659 0.044189848 0
-0.17286319 -0.018361913 0.020862261 1.4659102e-38 -0.30589357 0.95037931 0.056641087 0
-0.037717707 -0.019309873 0.020651173 1.4105919e-38 0.52336472 0.84445125 -0.1139802 0
-0.033694692 -0.021226268 0.021015082 1.2998848e-38 0.33151534 0.94209141 -0.050609544 0
-0.027246749 -0.022309704 0.020955516 1.6872155e-38 0.0086033605 0.99990231 -0.011016722 0
-0.020850787 -0.022078514 0.021022007 1.6688124e-38 -0.019970918 0.99980056 -1.8396999e-05 0
-0.014552962 -0.021896636 0.021092225 1.6319343e-38 -0.033284523 0.99943721 0.0041674874 0
-0.0082400097 -0.021840358 0.021210998 1.6134951e-38 0.011102721 0.99979973 -0.016649477 0
-0.0026292594 -0.02183279 0.020636627 1.6134954e-38 0.014772254 0.99988401 -0.0037197401 0
0.0030499562 -0.022065982 0.021024363 1.5858367e-38 0.033209339 0.99941623 -0.0080189845 0
0.0088938251 -0.022179503 0.020831265 1.5858367e-38 0.024985256 0.99844635 -0.04980569 0
0.015002822 -0.022422127 0.020949077 1.5673976e-38 0.062749945 0.99689078 -0.047657318 0
0.021055331 -0.022565601 0.021194456 1.558178e-38 -0.0020676907 0.99990821 -0.013390429 0
0.026675854 -0.022590028 0.020604873 1.5397389e-38 0.01965211 0.99976516 -0.0091262162 0
0.033370521 -0.022581479 0.021170165 1.5305193e-38 0.0270046 0.99832141 -0.051236402 0
0.039776381 -0.022777129 0.021507535 1.5397389e-38 -0.0040460108 0.99977678 -0.020735104 0
0.04456092 -0.022784846 0.020814823 1.5397389e-38 0.056999616 0.99782223 -0.03319335 0
0.050767053 -0.023216365 0.020939872 1.5212998e-38 0.042198081 0.99808472 -0.045234066 0
0.057132792 -0.023318861 0.020685468 1.4936771e-38 0.012482725 0.99961168 -0.02491267 0
0.062909871 -0.02350615 0.020690432 1.5212998e-38 0.052101523 0.99846649 -0.018710056 0
0.069457509 -0.023483112 0.02100018 1.5212998e-38 -0.0047864853 0.99943632 -0.03322801 0
0.075036347 -0.023660304 0.02159757 1.5120802e-38 0.059044831 0.99825531 -6.309629e-05 0
0.078624576 -0.023972178 0.020268105 1.5305193e-38 0.11582032 0.99313456 0.016416535 0
0.10132579 -0.023972135 0.020458126 1.5673619e-38 0.016625134 0.99861526 -0.049912233 0
0.10309395 -0.023913197 0.02269797 1.567397e-38 0 0.99778521 0.066518933 0
0.14283508 -0.023980105 0.022723887 1.5950563e-38 -0.049813565 0.99654645 -0.066436328 0
0.14573665 -0.023870185 0.023565158 1.5766172e-38 -0.011158568 0.99840176 -0.055401441 0
0.15078324 -0.023997121 0.023684815 1.5858367e-38 0.033241004 0.99723381 -0.066482171 0
0.15924554 -0.023883216 0.022278633 1.5397389e-38 -0.049793165 0.99708724 -0.057773288 0
0.16623925 -0.023518356 0.021587886 1.5397389e-38 -0.077451922 0.99356985 -0.082584791 0
0.17122629 -0.023038296 0.021048103 1.5397386e-38 -0.073512368 0.99430203 -0.077197559 0
0.17763005 -0.022589721 0.020808725 1.5489582e-38 -0.076555431 0.99548376 -0.056137018 0
0.18286505 -0.022312419 0.020732561 1.5397388e-38 -0.023715101 0.99931121 -0.028544148 0
0.18951936 -0.022335576 0.019591872 1.5397386e-38 -0.0041319006 0.99874544 -0.049904034 0
0.19550684 -0.022107011 0.02157625 1.5397026e-38 -0.0048497161 0.99837142 -0.056841657 0
0.20111454 -0.022180894 0.021089235 1.5212994e-38 0.019010851 0.99926817 -0.033191394 0
0.20668995 -0.022224713 0.021061718 1.4567626e-38 0.0047088112 0.99943769 -0.033197049 0
0.21301471 -0.022165755 0.020253444 1.3553474e-38 5.4805856e-08 0.9999392 -0.011028741 0
0.21890351 -0.022197008 0.020819305 1.30003e-38 -0.049044237 0.99857712 0.020937312 0
0.22615516 -0.020427041 0.021205993 7.5607605e-39 -0.51886261 0.85212278 0.068325236 0
0.22897846 -0.018487625 0.023642739 1.3923346e-38 -0.73373264 0.65649706 0.17506608 0
0.24306647 -0.018885717 0.018930044 8.1142944e-39 0.040315013 0.59174752 -0.80511469 0
0.25022149 -0.02117536 0.02126104 3.8736626e-39 0.98771596 -0.11867154 0.10165792 0
0.25579804 -0.0209476 0.021493189 1.108158e-39 0.33798903 -0.50432992 0.7946161 0
0.26016706 -0.02102031 0.019898476 1.2007138e-39 0.28690839 -0.56275725 0.77523404 0
0.26730856 -0.019276859 0.019534793 1.3840261e-39 0.14843434 -0.59656066 0.7887221 0
0.27294582 -0.019235831 0.018933475 2.0297528e-39 -0.22960798 -0.70891154 0.66687661 0
0.27811715 -0.021646785 0.021228528 2.1215855e-39 -0.64538914 -0.3991192 0.65128845 0
0.28655899 -0.02080093 0.021660235 1.0787969e-38 0.68087935 0.67034584 -0.29502505 0
0.28852844 -0.023398042 0.022188153 1.0511741e-38 0.84357136 0.53563321 -0.038527951 0
-0.27106029 -0.0172408 0.020993 1.9638391e-38 -0.4995065 0.86629766 0.0046466002 0
-0.26665106 -0.01419898 0.021549087 1.5857653e-38 -0.68665153 0.71277559 0.14304064 0
-0.25832227 -0.013530529 0.021271186 6.8214228e-39 0.45824146 0.84011227 -0.29021761 0
-0.25615615 -0.013437389 0.021063091 1.2814139e-38 -0.18887192 0.85000265 0.4917548 0
-0.19445603 -0.015450091 0.021074586 9.772378e-39 0.89917141 0.39535978 -0.18756703 0
-0.16933076 -0.016584912 0.021025172 6.1774631e-39 -0.64465952 0.75057578 0.14508656 0
-0.16545956 -0.01339843 0.020392414 8.9454816e-39 -0.48717478 0.87050492 0.069869928 0
-0.081117496 -0.012059402 0.019667979 2.1388667e-38 0.099381037 0.99381405 -0.049568225 0
-0.075178392 -0.012596568 0.020648859 1.687037e-38 0.056384169 0.9964143 -0.063082136 0
-0.069598347 -0.012853317 0.020878781 1.2718678e-38 0.082405537 0.99441248 -0.065978996 0
-0.063186951 -0.013467751 0.021047613 1.7054027e-38 0.11591966 0.99244004 -0.040316548 0
-0.056423962 -0.014080562 0.02057663 1.9545827e-38 0.046482515 0.99883109 -0.013261607 0
-0.051151335 -0.01433832 0.020439461 2.0008244e-38 0.066450685 0.99750787 -0.023715412 0
-0.044776317 -0.0155022 0.020666981 1.9730938e-38 0.35308167 0.93460894 -0.042888362 0
-0.041205894 -0.017137866 0.021282751 1.4475063e-38 0.44801924 0.88688833 -0.11272913 0
0.23087764 -0.016306253 0.020895226 1.7520785e-39 -0.5939067 0.80418986 0.023527306 0
0.23630847 -0.014861496 0.021176634 6.0856318e-39 0.072755679 0.86246604 -0.50085837 0
0.24248923 -0.014588189 0.021796331 2.1215827e-39 -0.091961041 0.62031567 -0.7789427 0
0.24818935 -0.015851989 0.019661279 2.675118e-39 -0.22382256 0.47708204 -0.8498801 0
0.25376761 -0.01413197 0.018859787 1.2911018e-39 -0.25671583 0.42014769 -0.8703866 0
0.26170856 -0.016498048 0.022714224 1.0159624e-39 0.26380387 -0.60176677 0.75384629 0
0.26721442 -0.016439239 0.021989863 1.2921878e-39 0.070869252 -0.72824574 0.68164188 0
0.27300718 -0.016645161 0.022242155 1.4765776e-39 -0.24048117 -0.68252856 0.690162 0
0.2805742 -0.013464827 0.018496294 1.3854638e-39 0.79454178 0.47995925 -0.37194419 0
0.28343764 -0.015718743 0.020910462 2.767315e-39 0.8343901 0.46616846 -0.29407513 0
-0.2650958 -0.01118566 0.019278636 8.2047062e-39 -0.66549134 0.61730891 0.41958427 0
-0.26082924 -0.0091605633 0.02174948 1.15234e-38 -0.087634832 0.8603729 0.50207442 0
-0.25460294 -0.0092365956 0.020015318 1.3366954e-38 -0.18814184 0.060097054 0.98030144 0
-0.24930209 -0.0096587306 0.021025682 1.1707434e-38 -0.33675069 0.47906113 0.81061661 0
-0.24375674 -0.0070591257 0.022555949 1.0509603e-38 -0.56020373 0.64074016 0.52499902 0
-0.19679379 -0.0095992871 0.021157773 6.1760296e-39 0.91570878 0.29591629 -0.27186567 0
-0.16200794 -0.011958697 0.022310667 2.0191556e-38 -0.28720242 0.95733821 -0.031911217 0
-0.15904319 -0.011520533 0.021506684 1.3830419e-38 -0.11995012 0.99269545 0.012947482 0
-0.15268146 -0.010508726 0.021339579 2.0560339e-38 -0.19361402 0.98071814 0.026565179 0
-0.14689933 -0.0095850741 0.020897908 1.9361801e-38 -0.077347711 0.99676001 0.022061989 0
-0.14090316 -0.0091462201 0.021027695 1.6504834e-38 -0.066495128 0.99774146 -0.0095097693 0
-0.13466705 -0.0088076331 0.021417744 2.046743e-38 -0.055434041 0.99829143 -0.018472578 0
-0.12874834 -0.0084650237 0.02036163 2.2127307e-38 0.0045955367 0.99997908 -0.0045542531 0
-0.1222143 -0.0088681197 0.020575974 1.9178494e-38 0.077169172 0.9969117 -0.014562312 0
-0.11708468 -0.0092398301 0.021434898 1.908594e-38 0.076932512 0.9967978 -0.021805625 0
-0.11225002 -0.0097254096 0.021041615 1.5859101e-38 0.14552702 0.98894644 0.028404795 0
-0.10574292 -0.010502895 0.021526905 1.4476178e-38 0.091382287 0.99581289 0.0024337759 0
-0.098990321 -0.010893183 0.020997649 1.3369103e-38 0.051773217 0.99729615 -0.052152295 0
-0.093390904 -0.011419305 0.020499419 1.1433718e-38 0.10264609 0.99299484 -0.058524892 0
-0.08702711 -0.011830688 0.02186564 1.3092878e-38 0.04216079 0.9975189 -0.056378543 0
-0.08261697 -0.011905721 0.019969771 1.6226456e-38 0.021910487 0.999699 -0.011046765 0
0.24591628 -0.011706142 0.022696188 5.5426679e-40 -0.38603565 0.62200236 -0.68124115 0
0.24937153 -0.010505003 0.022288362 1.8548007e-40 -0.27389643 0.51040524 -0.81514853 0
0.25467038 -0.009020837 0.021572493 4.2038954e-45 -0.30698106 0.5690276 -0.76286978 0
0.26001436 -0.0090853674 0.019742027 0 -0.26064086 0.51872391 -0.8142432 0
0.26571766 -0.0075184354 0.019090682 0 -0.20462863 0.53814989 -0.8176319 0
0.27334073 -0.0070496411 0.018968038 3.671402e-43 0.1245378 0.58982646 -0.79786915 0
0.27905211 -0.0093754623 0.021035498 8.3192988e-40 0.7470606 0.55540311 -0.36527789 0
-0.26102006 -0.0032252355 0.021578912 1.0601441e-38 -0.80390257 0.47369364 0.35965973 0
-0.25473452 -0.0031784959 0.020361759 1.0508888e-38 0.079637386 0.019774944 0.99662775 0
-0.24983582 -0.002727129 0.020795137 1.4842441e-38 0.13176621 -0.27202636 0.95322573 0
-0.24262996 -0.0039063292 0.02206501 1.1246812e-38 -0.42197356 0.51278722 0.74765474 0
-0.23665999 -0.0023711924 0.02122068 1.0232658e-38 -0.10731705 0.65731108 0.7459392 0
-0.23160915 -0.0013953474 0.022079986 1.1154609e-38 0.10451461 0.69653672 0.70986855 0
-0.22465886 -0.001706514 0.022004247 1.0048263e-38 -0.11774088 0.94749326 0.29731047 0
-0.2207402 -0.0016469855 0.019643091 7.4664307e-39 -0.28998077 0.95611149 0.041976456 0
-0.21342945 -0.0018364718 0.021212012 9.0337578e-39 0.10530879 0.99040133 -0.089527965 0
-0.20900711 -0.0019030891 0.019588847 9.6791258e-39 -0.72267461 0.65096474 0.23234957 0
-0.19827417 -0.00066917832 0.02005199 8.573123e-39 0.9677422 0.19354691 -0.16129068 0
-0.19760783 -0.0034733294 0.021534812 8.3887303e-39 0.98129529 0.10167001 -0.16347146 0
0.25675097 -0.0059489366 0.022950685 1.0902102e-42 -0.27216634 0.68041337 -0.68041396 0
0.2611022 -0.0043689683 0.022726333 9.2204038e-41 -0.26730484 0.64813787 -0.71306759 0
0.26662052 -0.0038358844 0.02199349 3.657389e-43 -0.084902346 0.70392734 -0.70517927 0
0.27284494 -0.0040838593 0.022184363 1.8511993e-40 0.22366792 0.78144324 -0.58251107 0
0.27675584 -0.0057882871 0.02194234 3.7131186e-40 0.56606674 0.72780013 -0.38713759 0
-0.25981426 0.0027444658 0.020446999 1.2630102e-38 -0.9073419 0.36353621 0.21112122 0
-0.25775585 0.0055069067 0.023675501 8.5731398e-39 -0.8865788 0.41374379 0.20686758 0
-0.24717097 0.00055944442 0.022437148 9.6787713e-39 0.10952201 -0.469381 0.87617719 0
-0.24232988 0.00098450098 0.021689825 8.7571695e-39 0.1952689 -0.42204353 0.88529617 0
-0.23737766 0.00097475335 0.02196371 1.0693279e-38 0.13263299 -0.41402397 0.90055132 0
-0.23261292 0.0013604417 0.022057066 1.0233017e-38 -0.034582011 -0.35534251 0.93409622 0
-0.1991839 0.0036108915 0.020185243 1.0785824e-38 0.9138701 0.25930095 -0.31241733 0
-0.25806171 0.0072165956 0.018041732 1.2814139e-38 -0.845155 0.50709325 0.16902544 0
-0.25654274 0.0088641169 0.02106778 9.1259562e-39 -0.84473896 0.50208306 0.18528038 0
-0.20028944 0.008355557 0.021263724 9.0341095e-39 0.92062038 0.32388258 -0.21807882 0
-0.25327554 0.013246112 0.020855727 9.2181505e-39 -0.54634923 0.81773633 0.18113445 0
-0.2490672 0.015087351 0.021713879 1.2629748e-38 -0.35198194 0.92897224 0.11453982 0
-0.24283457 0.016638542 0.0208745 1.0140104e-38 -0.24289216 0.96654302 0.082450233 0
-0.2391804 0.017883297 0.021572514 9.4028991e-39 -0.38210323 0.92308879 -0.043637853 0
-0.2192467 0.017770389 0.019299787 7.8348559e-39 0.11854092 0.98867232 -0.092059657 0
-0.21298054 0.017271422 0.021557482 9.4943772e-39 0.085375585 0.99416524 -0.065927349 0
-0.20705487 0.016373023 0.021242395 1.0785829e-38 0.31426263 0.93737745 -0.15020865 0
-0.20251845 0.013430718 0.020999687 9.3110566e-39 0.81124544 0.55970889 -0.16913581 0
-0.23661451 0.019112015 0.0211599 1.0232658e-38 -0.42455256 0.90442246 0.042132292 0
-0.23122361 0.019575778 0.020857992 1.0047547e-38 0.12007286 0.98518825 0.12241987 0
-0.2249288 0.018500194 0.020936675 9.3103405e-39 0.12733354 0.99034423 -0.054811854 0
-0.21933188 0.01821018 0.023344744 6.6373833e-39 0.13195032 0.99070615 -0.033023804 0
-0.3074885 -0.037636537 0.02547767 2.0929127e-38 -0.69691682 0.69692981 -0.16910292 0
0.28581583 -0.037189189 0.027565233 4.7030617e-39 0.47145545 0.82014149 0.32418773 0
0.28925103 -0.037409611 0.028696731 7.008314e-39 -0.60644048 0.51509237 0.60573077 0
0.25180298 -0.030546298 0.026556443 1.1081566e-39 0.46806124 0.65529245 -0.59288323 0
0.25474739 -0.032827754 0.0266815 6.4753862e-40 0.5400849 0.77755851 -0.32204181 0
0.26102325 -0.034704491 0.026959233 2.7911904e-40 0.26405743 0.90617025 -0.330347 0
0.26809573 -0.035282928 0.027100984 1.8511853e-40 -0.10671539 0.97406292 0.19953257 0
0.27257195 -0.034288898 0.027062662 2.7839877e-40 -0.22069399 0.93369633 0.28196675 0
0.27833554 -0.034299385 0.027358023 3.6987133e-40 0.22688349 0.96275461 0.14706305 0
0.28547785 -0.034280565 0.025679512 4.1506082e-39 -0.58194441 0.71832997 0.38123837 0
0.28925425 -0.03261511 0.028106604 6.8239213e-39 -0.83560449 -0.26389575 0.48179275 0
0.4300648 -0.030186016 0.026363537 1.8348372e-38 0.1786209 0.97837299 -0.10431176 0
0.43324608 -0.031649202 0.025191035 1.7703e-38 0.3618803 0.90469062 -0.22489451 0
-0.20252223 -0.025679255 0.027427906 5.9912852e-39 0.82756108 0.38199973 0.41136217 0
0.081502989 -0.024098899 0.027225332 1.5120801e-38 0.016601922 0.99982786 -0.0082872054 0
0.086441271 -0.024162024 0.026553633 1.5212995e-38 0.0036738648 0.9996587 -0.025863916 0
0.093184672 -0.024033936 0.026885556 1.5212995e-38 -0.033300675 0.99919742 0.022259034 0
0.10052149 -0.024036596 0.027113143 1.5489585e-38 -0.01332565 0.99849474 0.05320381 0
0.10504248 -0.024199618 0.026784727 1.5581782e-38 0.023150241 0.99972618 0.0034253995 0
0.1108316 -0.024273623 0.02586288 1.5858727e-38 0.0083152857 0.99995726 -0.004047439 0
0.11694992 -0.024382228 0.027733155 1.6134954e-38 0.030211115 0.99954349 -9.9958343e-06 0
0.12317322 -0.024490044 0.02670617 1.6319345e-38 -0.0037201326 0.99974763 -0.022155982 0
0.12907811 -0.024373615 0.026663857 1.6134954e-38 -0.045707583 0.99726224 -0.058127262 0
0.1349109 -0.024140622 0.026781982 1.6319345e-38 -0.046443325 0.99624884 -0.073015593 0
0.25068846 -0.027094275 0.026083132 9.2340664e-40 0.96553707 0.25833562 -0.03163648 0
0.28595114 -0.026821822 0.026951522 5.625018e-39 -0.68642056 -0.50991815 0.5184691 0
0.29129902 -0.026124263 0.026872296 9.6823404e-39 0.62452424 0.77636117 0.085046589 0
0.29696336 -0.026957657 0.027270569 1.1986509e-38 -0.025779858 0.99576801 0.088212736 0
0.30280229 -0.026425034 0.027501293 1.3922979e-38 -0.13935505 0.98491991 0.10253283 0
0.30941054 -0.025815027 0.026753869 1.4660544e-38 -0.047963347 0.9981696 0.036835853 0
0.315292 -0.025516605 0.027148487 1.5213718e-38 -0.055428211 0.99807858 0.027694257 0
0.3207505 -0.025030637 0.027108196 1.5398109e-38 -0.080366425 0.99456769 0.0661534 0
0.32680601 -0.024691818 0.026773719 1.5674336e-38 -0.047261067 0.99833363 0.033111434 0
0.33193344 -0.024513582 0.026622901 1.604276e-38 0.0066570085 0.99977791 0.019993311 0
0.33882114 -0.024633832 0.027435075 1.6319345e-38 -0.02095047 0.9991281 0.036112383 0
0.34518164 -0.024426369 0.026626721 1.6503737e-38 -0.0033239024 0.99999446 3.697862e-06 0
0.35182816 -0.024368044 0.027348863 1.6872519e-38 -6.1436886e-06 0.99989074 -0.014780138 0
0.35731938 -0.024367083 0.026415685 1.6964715e-38 -0.01423481 0.99985373 0.0094810631 0
0.36209026 -0.024283681 0.026839402 1.7056909e-38 -0.018998213 0.99977446 0.0094885919 0
0.36912382 -0.024080183 0.027182316 1.7241302e-38 -4.4749308e-05 0.99999297 0.0037443184 0
0.37565646 -0.024274489 0.027089262 1.7517528e-38 0.041446857 0.99913192 0.0042090835 0
0.3814618 -0.024439849 0.027547967 1.7610083e-38 0.024963617 0.99965382 -0.0083119813 0
0.38717499 -0.024676761 0.026753664 1.7794837e-38 0.060930684 0.99812657 0.0055440846 0
0.39270937 -0.024906697 0.026717817 1.7887033e-38 0.036895722 0.99925673 0.011166766 0
0.39866292 -0.025243279 0.027679179 1.8255455e-38 0.055269867 0.99734366 0.047443837 0
0.40458784 -0.025419112 0.026513156 1.8439846e-38 0.01542586 0.99518102 0.096833542 0
0.41153097 -0.025571877 0.026263699 1.8440567e-38 0.16505888 0.97564989 0.14443991 0
0.41734505 -0.02784471 0.027485972 1.8532405e-38 0.29070514 0.95217305 0.094112173 0
0.42313057 -0.029077485 0.027008921 1.8532403e-38 0.13860354 0.99009371 -0.022438597 0
0.42790866 -0.02976211 0.026728407 1.8440568e-38 0.18590602 0.9814772 -0.046275921 0
-0.36602721 -0.020641835 0.024864726 2.1114238e-38 0.28734615 0.95782679 0 0
-0.36389866 -0.02092337 0.027199833 2.1390828e-38 0.16845249 0.98008525 -0.10515078 0
-0.35772079 -0.020859161 0.026918855 2.1390828e-38 0.016871655 0.99899125 0.041614499 0
-0.35102922 -0.021814201 0.02676392 2.1667415e-38 0.14655933 0.98728013 -0.06162947 0
-0.34537303 -0.021723753 0.027576528 1.7332413e-38 -0.096057564 0.99533468 0.0090427045 0
-0.3385064 -0.021211138 0.025994953 2.1666692e-38 -0.081165463 0.99645525 0.022116413 0
-0.33253965 -0.020724077 0.027938018 2.1758888e-38 -0.11874383 0.99072927 0.065994494 0
-0.32716182 -0.020003593 0.027209263 2.1758888e-38 -0.1156972 0.99273705 0.032971751 0
-0.32007411 -0.019483391 0.026661457 2.1574496e-38 -0.06163539 0.99791998 -0.018890385 0
-0.31503963 -0.019288238 0.025950987 2.1483021e-38 -0.0066655716 0.99995553 0.0066656251 0
-0.30914217 -0.019163243 0.026827129 2.1390465e-38 -0.0073814155 0.99986309 -0.014803633 0
-0.30297005 -0.019074997 0.026130896 2.0744377e-38 -0.00019153487 0.99994123 -0.010839771 0
-0.2974793 -0.019182071 0.026824353 2.0560704e-38 0.027695324 0.99947482 0.016827291 0
-0.29111162 -0.019297555 0.026927423 1.9822778e-38 0.0084079523 0.99954259 0.029048782 0
-0.28554079 -0.018935097 0.0261443 1.9362161e-38 -0.089943103 0.99539697 0.033091612 0
-0.27826554 -0.018393461 0.026418436 1.9177411e-38 -0.023698427 0.99943489 -0.023839712 0
-0.2736657 -0.018164231 0.027539162 1.8808987e-38 -0.141589 0.98985857 -0.011516982 0
-0.18823576 -0.019600265 0.027194656 1.2262372e-38 0.11596525 0.99170506 -0.055434946 0
-0.18219519 -0.019579569 0.027082298 1.5489219e-38 -0.10692157 0.99417996 -0.013190651 0
-0.17678161 -0.019077642 0.026887747 1.6503374e-38 -0.093290858 0.9956345 0.0029764173 0
-0.17238493 -0.018428601 0.027884381 1.3736786e-38 -0.29288766 0.95471644 0.052280974 0
-0.036962628 -0.018953696 0.027235989 1.6410071e-38 0.56078684 0.81984442 -0.11564267 0
-0.032457031 -0.021206753 0.026722774 1.3459828e-38 0.33459821 0.93713814 -0.099076562 0
-0.027043968 -0.022135187 0.02679293 1.6687403e-38 0.056773134 0.99798143 -0.028457761 0
-0.020524591 -0.022109153 0.027266227 1.6779962e-38 -0.029498788 0.99955827 0.0036293659 0
-0.01454336 -0.021902148 0.027466979 1.6780321e-38 -0.045738902 0.99894488 -0.0041392692 0
-0.0088066338 -0.021815004 0.026535647 1.6042756e-38 -3.9461684e-05 0.99989843 -0.014253797 0
-0.0022028536 -0.021787371 0.026712677 1.5673973e-38 0.014793068 0.99978149 0.014768603 0
0.0042724363 -0.021964991 0.027149884 1.558178e-38 0.016587583 0.99986243 -3.446297e-05 0
0.0096025234 -0.022001019 0.026118359 1.5673976e-38 0.028558053 0.99954647 -0.0095490953 0
0.015391933 -0.022149527 0.026855517 1.5305193e-38 0.026655812 0.99959886 0.009572668 0
0.021339042 -0.022340346 0.027393848 1.5305193e-38 0.0073432149 0.99994677 -0.0072433571 0
0.026884623 -0.022460742 0.027051756 1.5120802e-38 0.023455951 0.99599552 -0.086270198 0
0.032891829 -0.022450304 0.026466766 1.5028607e-38 -0.021861894 0.99808526 -0.057860665 0
0.038236216 -0.022637391 0.027344586 1.4936411e-38 0.045308173 0.9989481 -0.007062119 0
0.045731515 -0.022772044 0.027535349 1.4936411e-38 0.033151049 0.99909854 -0.02651771 0
0.051826537 -0.022959292 0.027328253 1.4844215e-38 -0.0048933164 0.99988586 -0.0142937 0
0.05653362 -0.023027984 0.027017172 1.4936411e-38 0.049672578 0.99790555 -0.041438192 0
0.062174108 -0.023261581 0.026981795 1.5028607e-38 0.014263759 0.99949116 -0.02853011 0
0.068792231 -0.023422154 0.026892344 1.5028607e-38 0.022068983 0.99944711 -0.024868775 0
0.075329728 -0.023749879 0.026681861 1.5120802e-38 0.072923072 0.99678332 0.033244316 0
0.078505129 -0.023966838 0.028266083 1.5120802e-38 0.033314787 0.9994449 0 0
0.094421357 -0.023900717 0.027116194 1.5397385e-38 -0.0066134185 0.99988949 -0.013314335 0
0.099547595 -0.023969878 0.027737826 1.5489582e-38 0.033022784 0.99068731 -0.1320914 0
0.13337451 -0.023902424 0.029559422 1.5858367e-38 -0.066190429 0.99285519 -0.099285334 0
0.14132845 -0.023780473 0.027694374 1.5950563e-38 -0.023246948 0.99831384 -0.053188942 0
0.14749067 -0.023766601 0.026466539 1.6042758e-38 0.0054699257 0.99984771 -0.016575504 0
0.15277617 -0.023838948 0.027008275 1.5766172e-38 0.0066158082 0.99931031 -0.036538247 0
0.15952875 -0.023726406 0.02715224 1.5489585e-38 -0.055224463 0.99731994 -0.047992472 0
0.16521199 -0.023157882 0.026269181 1.5397388e-38 -0.10867011 0.99336171 -0.037727002 0
0.17112443 -0.022734534 0.027981071 1.5397389e-38 -0.06043895 0.99787867 -0.024192624 0
0.17737025 -0.022410866 0.027340002 1.5305191e-38 -0.037309207 0.99924356 -0.010967839 0
0.18326733 -0.022169927 0.027451925 1.5305192e-38 -0.044281382 0.99884677 -0.018555894 0
0.18883501 -0.022107475 0.026518475 1.5305192e-38 -0.020917568 0.99940705 -0.027349005 0
0.19537005 -0.021875445 0.026923966 1.5489582e-38 -0.023777269 0.99943483 -0.023761446 0
0.20150137 -0.022018006 0.026825875 1.530483e-38 0.038027983 0.99909538 -0.019033698 0
0.20704895 -0.022272432 0.026853526 1.4659821e-38 0.020821432 0.99974865 0.0083179614 0
0.21323243 -0.0224301 0.026774427 1.3369082e-38 0.039741032 0.99850029 0.037653685 0
0.2194355 -0.022437947 0.027628953 1.152517e-38 -0.059313241 0.99788636 0.026546799 0
0.2246342 -0.021414045 0.026626892 1.1709562e-38 -0.30597267 0.95106137 0.043162178 0
0.22893138 -0.019520393 0.027546849 7.4682034e-39 -0.55429053 0.79058319 0.26026949 0
0.24924879 -0.02165666 0.027361918 8.3156975e-40 0.78731036 -0.17014773 0.59261459 0
0.25462431 -0.018702205 0.025001992 1.2925479e-39 0.67356545 -0.62308615 0.39758432 0
0.2803283 -0.019867528 0.025740843 2.3981752e-39 -0.61791801 -0.54760724 0.56418401 0
0.28540245 -0.021107476 0.026884239 6.0859962e-39 0.35720751 -0.078936644 0.93068349 0
0.28910667 -0.02278118 0.02790929 9.68126e-39 0.67427301 0.66784137 -0.31518847 0
-0.27100474 -0.017389204 0.025722168 1.8809352e-38 -0.39328727 0.91778779 0.054687593 0
-0.26707974 -0.0151334 0.027332624 1.8808992e-38 -0.61047888 0.79069138 0.046071973 0
-0.25545186 -0.013337831 0.025293071 1.1339007e-38 0.25847372 0.90623444 -0.33455992 0
-0.19353832 -0.014725517 0.027196731 8.8497085e-39 0.89794642 0.39551723 -0.19302393 0
-0.19168186 -0.017399617 0.027732039 1.0510655e-38 0.76888156 0.61402142 -0.17832223 0
-0.1694288 -0.017111985 0.02727087 1.2353853e-38 -0.55006874 0.8346557 0.02782819 0
-0.16548631 -0.013883841 0.026851399 1.3093227e-38 -0.51905686 0.8522684 0.06495069 0
-0.161671 -0.0120706 0.02759509 1.8623869e-38 -0.34392241 0.93886489 -0.015812252 0
-0.079741642 -0.012225445 0.025453389 2.046744e-38 0.079478651 0.99675143 -0.013030434 0
-0.074773476 -0.012286688 0.027173853 1.4012646e-38 0.0265209 0.9978677 -0.059637964 0
-0.068375051 -0.012648958 0.026717175 3.5977834e-39 0.066252835 0.99694008 -0.041485805 0
-0.062252499 -0.013322513 0.027015038 6.9150128e-39 0.16034961 0.98541635 -0.056943383 0
-0.055908587 -0.013864529 0.027680913 1.41052e-38 0.03325969 0.99889314 -0.033259645 0
-0.050226219 -0.014155241 0.026460415 1.9732016e-38 0.052978054 0.99752033 -0.046331305 0
-0.043807868 -0.015448043 0.026973024 1.7610433e-38 0.35352597 0.93245673 -0.074456759 0
-0.040529143 -0.016832735 0.026426604 1.4751644e-38 0.47082949 0.87457031 -0.11595821 0
0.23233585 -0.016304456 0.026752483 3.22721e-39 -0.65135849 0.69531739 0.30375317 0
0.23605816 -0.013207818 0.026723217 2.2137741e-39 -0.52311999 0.8470192 -0.094360858 0
0.25151744 -0.017620441 0.028030155 1.2003523e-39 0.58779722 -0.69152725 0.41986245 0
0.25587443 -0.016853131 0.026193991 1.015961e-39 0.36445463 -0.64648998 0.67024136 0
0.26029512 -0.014406314 0.025335189 1.2003537e-39 0.31170863 -0.61175233 0.72704661 0
0.26551357 -0.013718443 0.025141364 1.2003523e-39 -0.12571235 -0.7401194 0.66062063 0
0.27576542 -0.016388897 0.024773946 2.5832853e-39 -0.64305574 -0.57329112 0.50775659 0
0.27817398 -0.016443497 0.028041471 2.0290325e-39 -0.60105568 -0.64230281 0.47558293 0
0.28470498 -0.014947453 0.0267375 2.4914498e-39 0.82501668 0.46004388 -0.32818758 0
-0.26151663 -0.0083974013 0.026851254 1.1615589e-38 -0.43709412 0.87851465 0.19277129 0
-0.2549246 -0.0097903991 0.028261015 9.4029005e-39 0.34888229 0.44914898 -0.82252431 0
-0.24924305 -0.0091220448 0.026817752 1.0970226e-38 -0.46167064 0.82487386 -0.32625651 0
-0.24547923 -0.0074187131 0.025318241 1.0600726e-38 -0.28253978 0.8476209 -0.44912139 0
-0.19537507 -0.008669354 0.026612349 6.5448163e-39 0.93018788 0.21852909 -0.29494989 0
-0.1578912 -0.011334811 0.027151918 1.6318981e-38 -0.13827291 0.99037236 0.0065685385 0
-0.15281236 -0.010533777 0.027233595 2.0652534e-38 -0.19562584 0.98029083 -0.027573394 0
-0.14767452 -0.0096393153 0.026073098 2.0744733e-38 -0.060396314 0.99809504 -0.012594991 0
-0.14124376 -0.0091098696 0.026749246 1.9267459e-38 -0.095574386 0.99517661 -0.022114526 0
-0.13531382 -0.0087777497 0.027621945 2.1111717e-38 -0.044377919 0.99887592 -0.01665866 0
-0.12927744 -0.0085190842 0.026863093 2.0927684e-38 -0.014868537 0.99988949 4.038342e-06 0
-0.12315498 -0.0089093661 0.026761722 1.9085216e-38 0.084610671 0.99630457 0.014777639 0
-0.11590982 -0.0094032185 0.026802225 2.0283759e-38 0.084374905 0.99587816 0.033279065 0
-0.11066727 -0.010092251 0.027170096 1.8347297e-38 0.11387861 0.9934327 -0.01110102 0
-0.10494414 -0.010559909 0.027205436 8.3934499e-39 0.051715568 0.99767441 -0.044398818 0
-0.098448098 -0.010511606 0.027023552 1.2908484e-38 0.0075399871 0.99702442 -0.07671614 0
-0.092555963 -0.010922914 0.026783815 1.9086293e-38 0.090746693 0.99395186 -0.061843924 0
-0.086921886 -0.011560703 0.027445242 1.5766895e-38 0.13184825 0.99074548 -0.032239649 0
-0.082154162 -0.011961842 0.027610505 2.1391187e-38 0.033245761 0.99935865 -0.013302655 0
0.23976278 -0.010731613 0.027574115 9.2914496e-41 -0.58485842 0.66840869 -0.45953301 0
0.24289122 -0.0093163792 0.026701555 9.2197031e-41 -0.42081881 0.74785763 -0.51343989 0
0.24825564 -0.0072343778 0.02545516 2.776743e-40 -0.3899194 0.63135779 -0.67033583 0
0.28034005 -0.0087819016 0.02580783 1.015961e-39 0.76597893 0.49808347 -0.40643466 0
0.28344536 -0.010515166 0.028472053 1.2010725e-39 0.82021642 0.48963556 -0.29580739 0
-0.25957388 -0.0020561386 0.028037237 1.1062418e-38 -0.96131361 0.2754347 0.0034510929 0
-0.25518945 -0.0031213958 0.026835585 9.1259562e-39 0.86573911 -0.32459474 -0.38096473 0
-0.24172276 -0.0050126365 0.026716352 9.6794832e-39 -0.46678245 0.88102835 0.076832414 0
-0.23649369 -0.003196124 0.026529042 7.3745966e-39 -0.20318826 0.96991491 0.13408799 0
-0.23057726 -0.0029485265 0.026845088 9.2185022e-39 -0.13740849 0.98967397 -0.040795542 0
-0.22412191 -0.0017379574 0.027362116 9.4954492e-39 -0.31459278 0.93764013 -0.14785931 0
-0.1964193 -0.0029539657 0.027472859 8.2043405e-39 0.9243384 0.23942454 -0.29711014 0
0.24881588 -0.0048840512 0.028038582 7.272739e-43 -0.41745955 0.7781111 -0.46932995 0
0.25570741 -0.0025622379 0.027261475 1.8511993e-40 -0.31872478 0.74360192 -0.58776748 0
0.2609933 -0.0015182223 0.026018148 9.2565573e-41 -0.2459625 0.71581262 -0.65354019 0
0.26736715 -0.0007865958 0.025254689 9.4006107e-41 -0.036644433 0.68512195 -0.7275061 0
0.27394491 -0.0012861792 0.025892803 3.7095173e-40 0.42455748 0.66308659 -0.61649579 0
0.27820128 -0.0037031402 0.02818078 1.015961e-39 0.69482738 0.58193111 -0.42257687 0
-0.25918281 0.0011024098 0.025488 1.2814495e-38 -0.83976096 0.44411328 0.31235376 0
-0.25723842 0.0039731991 0.027929951 1.0324854e-38 -0.93194598 0.28656983 0.22215874 0
-0.24177667 0.0013827215 0.029504953 7.467144e-39 0.87574214 -0.41701451 -0.24325848 0
-0.22395176 0.00087664154 0.025894947 1.0601438e-38 -0.15914093 -0.81591785 0.55583477 0
-0.19840963 0.0055075735 0.02544236 1.2537541e-38 0.93706459 0.31235549 -0.15602556 0
-0.19765571 0.0030711568 0.026541343 1.0233006e-38 0.9732458 0.14920153 -0.17473243 0
0.26267186 0.0012738828 0.028554479 3.7023286e-40 -0.25769129 0.76337945 -0.59232348 0
0.26676124 0.0014885431 0.02781349 1.869206e-40 -0.076738685 0.78201514 -0.6185171 0
0.27311516 0.0013426354 0.028428834 3.7131186e-40 0.25392088 0.79366547 -0.55282849 0
-0.25517833 0.0089526027 0.027024694 1.0140468e-38 -0.82754952 0.5184232 0.21540473 0
-0.19921738 0.0097816838 0.026285334 1.0324847e-38 0.91594005 0.31549132 -0.24803026 0
-0.19759946 0.0062158387 0.029544542 1.1523389e-38 0.95587897 0.19117428 -0.22304218 0
-0.25270545 0.012827151 0.02440686 1.289685e-39 -0.61157626 0.76447183 0.20385621 0
-0.24942794 0.01453827 0.027580148 9.1263122e-39 -0.49614233 0.86776882 0.028638689 0
-0.24331558 0.016665187 0.026905252 8.573144e-39 -0.22429639 0.96621829 -0.12693875 0
-0.23978516 0.017686054 0.024472106 5.347006e-39 -0.53505141 0.84481949 0 0
-0.21671271 0.017929049 0.026096027 1.834623e-38 0.16404469 0.98426813 0.065617755 0
-0.21293248 0.01717665 0.027668232 1.1062416e-38 0.1975963 0.97778654 0.06992241 0
-0.20662549 0.016755801 0.026848862 9.95607e-39 0.21166322 0.9768548 -0.030879201 0
-0.20181347 0.01427792 0.02728595 1.0785828e-38 0.70772541 0.6671074 -0.23257759 0
-0.23677365 0.018774152 0.027171355 8.8497253e-39 -0.19742222 0.97845495 0.060418773 0
-0.23047616 0.019141572 0.026845181 1.1154972e-38 0.03745997 0.99922037 -0.012462115 0
-0.22450754 0.018689351 0.027002536 8.2043503e-39 0.073657788 0.99660563 -0.036764879 0
-0.21875346 0.018279111 0.02724269 7.374591e-39 0.12673479 0.99193656 -0.0004214863 0
-0.30719167 -0.037714772 0.034483723 2.1483024e-38 -0.91883171 0.35732248 -0.16753817 0
0.26839304 -0.036499828 0.033226959 9.2927108e-41 0.10538529 0.98761421 0.11624153 0
0.27187636 -0.036445729 0.03352521 2.8025969e-45 -0.19869503 0.95973343 0.19857475 0
0.28042638 -0.036184687 0.034071367 9.1843904e-41 0.19702259 0.97629189 0.089644678 0
0.28567082 -0.037189569 0.033868153 1.1067105e-39 0.49464127 0.86730325 -0.0558124 0
0.29096663 -0.038808126 0.033863656 6.9157554e-39 -0.5723623 0.67226666 0.46953052 0
0.25540528 -0.031903021 0.033566874 5.5498286e-40 0.5143801 0.85660368 0.040536322 0
0.26166707 -0.034363329 0.033300966 1.858416e-40 0.34969383 0.91854894 0.18434231 0
0.2655369 -0.035621136 0.031923972 9.3283037e-41 0.4979578 0.86072636 0.10577422 0
0.27448127 -0.03522107 0.032142021 4.2038954e-45 -0.30192822 0.8818754 0.3621259 0
0.27762705 -0.034389969 0.03240646 3.643376e-43 0.28163734 0.94753748 0.15117294 0
0.28210086 -0.035863183 0.031996317 9.1843904e-41 -0.033297017 0.9988907 0.033296935 0
0.29148471 -0.033040073 0.032922979 6.6395287e-39 -0.87741381 -0.23082852 0.42055109 0
0.4308157 -0.030122681 0.03409249 1.797959e-38 0.17446613 0.98460823 -0.010404379 0
0.43344352 -0.030622438 0.033291772 1.797959e-38 0.14771427 0.98887914 0.017277701 0
0.44006273 -0.031566232 0.033006679 1.7794117e-38 0.28704768 0.95549923 -0.068005539 0
-0.20249698 -0.025594715 0.031073123 6.2678721e-39 0.23072542 0.96818995 -0.096819408 0
0.082231939 -0.024091065 0.030789049 1.5028607e-38 0.033314705 0.9994449 0 0
0.085929304 -0.024064882 0.030909412 1.5028604e-38 0 0.99875301 -0.049923748 0
0.099696904 -0.024079598 0.032217201 1.548958e-38 0.066434138 0.997756 -0.0083387578 0
0.1047636 -0.024129974 0.032730561 1.5489945e-38 0.0073608439 0.99996608 -0.0037049358 0
0.11035331 -0.024188558 0.032815624 1.5766172e-38 0.042786531 0.99880123 0.023779061 0
0.11650785 -0.024298495 0.034176044 1.6134597e-38 -0.00010570628 0.99960023 -0.028271168 0
0.12367414 -0.024185278 0.032875527 1.622715e-38 -0.040634472 0.99720335 -0.062723853 0
0.1287452 -0.024006594 0.031909395 1.5858367e-38 -0.033204351 0.99723494 -0.066482231 0
0.2504749 -0.027453413 0.033418242 8.3085088e-40 0.81541163 0.55438119 0.16662963 0
0.25262594 -0.029583216 0.032208078 7.3937412e-40 0.67676336 0.72830725 0.10751736 0
0.28740352 -0.025028253 0.031618569 5.9023252e-39 -0.82912236 -0.40676641 0.38353235 0
0.29087409 -0.026744403 0.033415139 8.1146574e-39 -0.83571595 0.42101318 0.35259983 0
0.2965025 -0.027373461 0.033515595 1.0603576e-38 0.12072649 0.99197364 0.037596207 0
0.30217817 -0.026982574 0.033386674 1.3184694e-38 -0.11714572 0.99221694 0.042218 0
0.30880472 -0.026103867 0.033217769 1.4383957e-38 -0.083988316 0.99545681 0.044852041 0
0.31560165 -0.025627915 0.032426301 1.5028967e-38 -0.066420265 0.99674863 0.045614015 0
0.32093477 -0.025351655 0.034438383 1.5397749e-38 -0.063388042 0.9978264 0.018016363 0
0.32698488 -0.024945877 0.033197094 1.5582139e-38 -0.047984172 0.99816513 0.036930252 0
0.33204362 -0.024681469 0.032842733 1.5950923e-38 -0.041495036 0.99768078 0.053955588 0
0.3375625 -0.024689423 0.033075783 1.622715e-38 0.024978982 0.9993763 0.024960235 0
0.34448463 -0.024815004 0.033359509 1.6595932e-38 -0.04145496 0.99634647 0.074666828 0
0.35068655 -0.024478272 0.033623498 1.6780324e-38 -0.04652106 0.99871868 0.019920705 0
0.35674971 -0.024309289 0.033049963 1.6872519e-38 0.0047566346 0.99997723 0.0047828713 0
0.36308965 -0.024243344 0.033134736 1.7149106e-38 -0.023307536 0.99972832 -1.1016892e-05 0
0.36924335 -0.024126511 0.032286234 1.7241302e-38 0.02373825 0.99970722 -0.0046877926 0
0.37571225 -0.024302011 0.031705879 1.7425693e-38 0.014232433 0.99988747 0.004744112 0
0.38132253 -0.024495257 0.033004686 1.7610084e-38 0.060905565 0.99715889 0.044324383 0
0.38670063 -0.024678912 0.032956142 1.7794475e-38 0.018515751 0.99971926 -0.014783706 0
0.39371306 -0.024987778 0.032275852 1.8071064e-38 0.094648927 0.99546474 -0.0095682414 0
0.39985314 -0.025374901 0.033436708 1.8255817e-38 0.12636092 0.99191463 0.011753638 0
0.40468445 -0.025987955 0.033590306 1.8348372e-38 0.092865169 0.99567199 0.003657812 0
0.41127354 -0.026613135 0.032696698 1.8440208e-38 0.20143744 0.9725129 0.11679748 0
0.4181931 -0.028173588 0.033433683 1.8256177e-38 0.16019095 0.98611462 -0.043780871 0
0.42240357 -0.028868366 0.033062644 1.8256177e-38 0.14724302 0.98874927 -0.02635121 0
0.42824912 -0.029735345 0.033449851 1.8163982e-38 0.17054409 0.9850046 -0.026089473 0
-0.36230782 -0.020689378 0.033251736 2.1390828e-38 0.16426289 0.98567283 0.038298 0
-0.35753095 -0.020996001 0.032910492 2.1390828e-38 -0.029231163 0.99914855 0.029117065 0
-0.35095823 -0.021539973 0.032836519 2.1575579e-38 0.10209119 0.99320006 -0.055954795 0
-0.34444168 -0.021569291 0.033559382 1.1524084e-38 -0.038672276 0.99923587 -0.005663712 0
-0.3388482 -0.021441322 0.033142753 2.0006812e-38 -0.070754774 0.99709684 0.028136345 0
-0.33310223 -0.020974077 0.033129387 2.1390105e-38 -0.10226348 0.99449319 0.022924222 0
-0.32634062 -0.02014574 0.033374935 2.1297909e-38 -0.1035351 0.99441034 0.020701623 0
-0.32046878 -0.019481475 0.033509407 2.1482301e-38 -0.10545758 0.9935686 0.041232128 0
-0.31531441 -0.019280363 0.032281809 2.1205714e-38 -0.02330967 0.99970615 -0.0066489116 0
-0.3094404 -0.019137038 0.032434545 2.0836931e-38 -0.016670473 0.99984574 -0.0055281511 0
-0.3037678 -0.019091105 0.032600638 2.0468869e-38 0.01110588 0.99976718 -0.018498829 0
-0.29658461 -0.01928602 0.03272967 2.0007172e-38 0.024952473 0.9995926 -0.013850943 0
-0.29058799 -0.019280324 0.032600269 1.9546554e-38 -0.0276141 0.99961865 3.2091725e-06 0
-0.28480551 -0.019002728 0.03292184 1.9269967e-38 -0.078353204 0.99663168 -0.024205627 0
-0.2788007 -0.018340625 0.032648966 1.9085576e-38 -0.096319951 0.99535042 -3.8124872e-05 0
-0.27439272 -0.018074133 0.034450889 1.9546197e-38 -0.049875345 0.9975093 -0.049875651 0
-0.18801615 -0.019266702 0.033034556 1.1432251e-38 0.41065019 0.90634477 -0.099526279 0
-0.18428995 -0.019496791 0.032297499 1.3645306e-38 -0.037685134 0.99776292 -0.055217545 0
-0.176872 -0.019070515 0.033031497 1.5950197e-38 -0.11400812 0.9929288 -0.033083189 0
-0.17192015 -0.018296219 0.033102993 1.3737505e-38 -0.28624448 0.95758981 -0.032951631 0
-0.03646338 -0.018566018 0.032993343 1.7054361e-38 0.54525876 0.826608 -0.13932699 0
-0.033614174 -0.020197513 0.03287112 1.4197386e-38 0.43997204 0.89247662 -0.099549785 0
-0.026414467 -0.022041054 0.032478821 1.6503369e-38 0.041750573 0.99902737 -0.014184795 0
-0.020851908 -0.021988899 0.033417903 1.6318624e-38 -0.022197224 0.99961466 -0.016667906 0
-0.01538789 -0.021849623 0.032954704 1.6411178e-38 -0.011111215 0.99992323 -0.0054913079 0
-0.0084193926 -0.02179426 0.033568773 1.6134951e-38 -0.0073782145 0.99986345 0.014785035 0
-0.0029234085 -0.021851968 0.032757707 1.595056e-38 0.016482735 0.99977535 -0.0133259 0
0.0030446388 -0.021881253 0.033071604 1.5673975e-38 0.0041628014 0.9999156 -0.012303059 0
0.0095125819 -0.021971418 0.031765152 1.5489583e-38 0.0056173042 0.9998486 0.016463529 0
0.015490139 -0.022075782 0.033462491 1.5212996e-38 0.029928967 0.99953079 -0.0065160841 0
0.019782674 -0.022290085 0.032582659 1.5212998e-38 0.059845284 0.99765438 -0.033229467 0
0.026012257 -0.022425419 0.032617539 1.4936411e-38 -0.0016766364 0.9999972 0.0016727732 0
0.033101894 -0.022351777 0.032673594 1.493641e-38 0.029933684 0.99953949 0.0049860608 0
0.03851692 -0.022549855 0.033862635 1.4844214e-38 0.027652504 0.99931937 -0.024413489 0
0.04503195 -0.022571227 0.032867979 1.4844215e-38 0.033254489 0.99846369 -0.044322014 0
0.0509988 -0.022734869 0.033613946 1.4752018e-38 0.029073736 0.99926764 -0.024875456 0
0.057243031 -0.023010628 0.033024818 1.4844214e-38 -9.9829304e-05 0.99980253 -0.019873813 0
0.063605927 -0.023060555 0.033165351 1.5028604e-38 0.033290252 0.99944574 -6.2134045e-09 0
0.06896542 -0.023389513 0.033600479 1.5212995e-38 0.09462969 0.99546754 0.009466703 0
0.074892096 -0.02377509 0.032237474 1.5212996e-38 0.066443771 0.99779016 7.8892563e-06 0
0.08094418 -0.02391907 0.034300189 1.5120799e-38 7.8504374e-05 0.99989706 -0.014347818 0
0.087633587 -0.023855234 0.034294579 1.5120799e-38 -0.028517792 0.99867702 -0.042789835 0
0.092587076 -0.023807088 0.033155728 1.5212995e-38 0.0032270877 0.99933076 -0.036435582 0
0.097032219 -0.023899864 0.034525089 1.5212995e-38 0.046560336 0.99871749 -0.019888666 0
0.12939239 -0.023870252 0.034943826 1.6411541e-38 -0.041560445 0.99692643 -0.066411175 0
0.13494636 -0.023724483 0.033106688 1.6135313e-38 -0.036037069 0.9982416 -0.047062594 0
0.14162365 -0.023466462 0.033019893 1.6226791e-38 -0.019974498 0.99871498 -0.046577286 0
0.14637597 -0.023562336 0.032843586 1.5950203e-38 0.044344023 0.99803221 -0.044331666 0
0.15212104 -0.023476545 0.033727955 1.622715e-38 -0.016664984 0.99791712 -0.06231872 0
0.15867063 -0.023382459 0.033253357 1.5858367e-38 -0.051546551 0.9947558 -0.088339299 0
0.16525564 -0.022981316 0.032533683 1.5673976e-38 -0.05159907 0.99811399 -0.03325833 0
0.1714358 -0.022641452 0.033796631 1.5489585e-38 -0.12745333 0.9917053 0.016620528 0
0.17729449 -0.022244418 0.032815568 1.5120802e-38 -0.05390114 0.99685973 -0.058012631 0
0.18255644 -0.022096507 0.032621767 1.5305192e-38 0.005491544 0.99992418 -0.011019568 0
0.18904646 -0.021866001 0.033739135 1.5305192e-38 -0.054064911 0.99852872 0.0041708266 0
0.19505394 -0.021804478 0.032719072 1.5397386e-38 0.03659242 0.99930751 0.0067409007 0
0.20089206 -0.022089919 0.033208326 1.5304832e-38 0.062320132 0.99774444 0.024944184 0
0.20701385 -0.02237707 0.032511454 1.4567626e-38 0.033254158 0.99904072 0.028494561 0
0.21313626 -0.022646993 0.032955978 1.3276887e-38 0.049784195 0.99690568 0.060832381 0
0.21925201 -0.022629682 0.03302547 1.134042e-38 -0.060194038 0.99752831 0.036247019 0
0.22519717 -0.021757042 0.032673739 1.1156387e-38 -0.22559315 0.97141713 0.073868282 0
0.2311921 -0.019483017 0.032875963 8.7593037e-39 -0.5341351 0.83559996 0.12834477 0
0.24807486 -0.02141935 0.032871753 8.3084948e-40 0.98019689 -0.07497932 -0.18328151 0
0.28195524 -0.018285662 0.03072867 4.0576951e-39 -0.79612082 -0.58381587 0.15921892 0
0.28540009 -0.020713063 0.032890718 4.6112262e-39 -0.66976714 -0.60070723 0.43653506 0
0.28981447 -0.021085307 0.033458274 8.4827182e-39 0.81397814 0.49434423 -0.30506274 0
-0.27124918 -0.017728342 0.031938773 1.880935e-38 -0.25128895 0.96762264 -0.023670491 0
-0.26686826 -0.015552158 0.03273271 1.8809348e-38 -0.5334506 0.83755189 0.11805615 0
-0.26341459 -0.012682782 0.033545297 2.1113159e-38 -0.78253108 0.60063791 0.16394864 0
-0.19323871 -0.013355823 0.031315878 1.0232644e-38 0.82326895 0.50044584 -0.26792181 0
-0.19097026 -0.016214686 0.033796154 1.0049321e-38 0.85404211 0.47934809 -0.20208274 0
-0.16872354 -0.016884835 0.033188295 1.2076889e-38 -0.57912874 0.81385034 0.047512677 0
-0.16454014 -0.013648279 0.033235226 1.3091777e-38 -0.53819114 0.84231186 0.029344851 0
-0.068042055 -0.012286368 0.031213451 7.5585815e-39 0.10694806 0.98757178 -0.11516989 0
-0.06328392 -0.012727831 0.033658639 8.1988992e-39 0.16327454 0.98105597 -0.10426205 0
