# .PCD v0.7 - Point Cloud Data file format
VERSION 0.7
FIELDS x y z rgb normal_x normal_y normal_z curvature
SIZE 4 4 4 4 4 4 4 4
TYPE F F F F F F F F
COUNT 1 1 1 1 1 1 1 1
WIDTH 551
HEIGHT 1
VIEWPOINT 0 0 0 1 0 0 0
POINTS 551
DATA ascii
0.123724 0.031643465 0.20146203 7.9349268e-39 -0.60010058 0.77948779 0.17966083 0
0.12856744 0.034428939 0.20032753 9.0380052e-39 -0.42038167 0.90238768 -0.094740383 0
0.13257249 0.035863552 0.19853629 3.1649895e-39 -0.24747662 0.9280318 -0.27841049 0
0.14654955 0.034267645 0.19858816 1.4742901e-38 0.55048698 0.83483052 0.0047126883 0
0.15073815 0.031158242 0.1985877 1.5387541e-38 0.62563717 0.77001393 -0.12512681 0
0.13462839 0.036848944 0.20123263 7.4786416e-39 -0.20136631 0.96996623 -0.13644446 0
0.14039905 0.037032399 0.20097153 1.5947253e-38 0.087637037 0.98060977 -0.17528321 0
-0.21683823 -0.043835185 0.20677003 1.567361e-38 -0.70506907 0.62803674 -0.32931358 0
-0.21474859 -0.042009167 0.20439446 1.6042393e-38 -0.86965573 0.37685305 -0.31887421 0
-0.2199229 -0.038334541 0.20746721 1.8070339e-38 0.5840438 0.69996774 -0.41102079 0
-0.21480265 -0.039088964 0.20749016 1.7978145e-38 -0.3275671 0.88462639 -0.33186725 0
-0.22800225 -0.030276541 0.20633914 1.9361796e-38 0.53484094 0.84448379 0.02815002 0
-0.22402121 -0.032003615 0.20713043 1.8992297e-38 0.5653196 0.82331443 0.050665416 0
-0.21815157 -0.03428866 0.20764269 1.8070341e-38 -0.44969961 0.89093447 0.063294016 0
-0.21417348 -0.03173808 0.207057 1.8070341e-38 -0.67720819 0.71517354 -0.17296174 0
-0.23031843 -0.02782537 0.20700493 1.9730221e-38 0.75468481 0.56306261 0.33676586 0
-0.2126072 -0.029438233 0.20520884 1.7885949e-38 -0.93419671 0.23747875 -0.26623347 0
-0.172456 -0.012146224 0.20483051 1.5395618e-38 -0.01622621 0.97002882 -0.24244745 0
-0.16455977 -0.012670976 0.20553212 1.2814496e-38 0.2659542 0.86891955 -0.41742915 0
-0.1605126 -0.012641978 0.20814946 1.1523041e-38 0.23019628 0.95542967 -0.18483424 0
-0.2826367 -0.0097925058 0.20608512 1.9638022e-38 0.082346097 0.99446583 -0.065245062 0
-0.27910742 -0.009875943 0.20728803 1.9638022e-38 0.014696065 0.99988538 -0.0036540041 0
-0.2732639 -0.009907037 0.2070618 1.9637665e-38 0.05794619 0.99831074 -0.004223879 0
-0.26720679 -0.0099709453 0.20657575 1.9545471e-38 0.0017072392 0.99991846 0.012653979 0
-0.2617656 -0.01003773 0.20794423 1.9084491e-38 -0.18065359 0.97955048 0.08857204 0
-0.25417107 -0.0077968184 0.20650794 1.8346926e-38 -0.24169429 0.97026199 0.013249268 0
-0.24978012 -0.0066538784 0.20772111 1.9268884e-38 -0.23992547 0.97028828 -0.031250563 0
-0.17559336 -0.0099154171 0.2070948 8.0199632e-39 0.87208551 0.34721765 -0.34482872 0
-0.17155458 -0.010853246 0.20775856 1.3183633e-38 -0.042478677 0.8483811 -0.52767903 0
-0.16500416 -0.011373204 0.20909417 8.3887471e-39 0.2746945 0.92845386 -0.25003281 0
-0.14149371 -0.0082075447 0.20600007 5.5306812e-39 -0.58451772 0.18426624 -0.79018033 0
0.029085346 -0.0070447247 0.20786689 1.5767252e-38 0.43345794 0.90081859 0.025301818 0
0.03182894 -0.0082053365 0.20600122 1.733349e-38 0.37214109 0.92811549 0.010611861 0
0.038737591 -0.0099268528 0.2071275 1.8624235e-38 0.12765776 0.99181116 0.0037554959 0
0.045337174 -0.010249211 0.20765609 1.8900823e-38 -0.00371548 0.99988371 -0.014792688 0
0.051132154 -0.010214106 0.20635511 1.9361801e-38 -0.022211272 0.99969184 -0.011087088 0
0.056822706 -0.010001421 0.20744599 1.9270329e-38 -0.041603826 0.99882168 -0.024988916 0
0.062805928 -0.0098497039 0.20712784 1.9362526e-38 -0.0074239355 0.99986285 -0.014800676 0
0.069755025 -0.009867752 0.20697108 1.9178133e-38 0.02498783 0.9996531 -0.0083246371 0
0.073866092 -0.0099358782 0.20608327 1.8993742e-38 0.033264 0.99935842 -0.013270949 0
0.08038149 -0.010103655 0.2072109 1.8533124e-38 0.023771238 0.99880147 -0.042784162 0
0.087046422 -0.010251565 0.20632026 1.6872525e-38 0.023305288 0.99970633 -0.0066573652 0
0.093270004 -0.010305663 0.20640704 1.6043482e-38 -0.02585667 0.99960405 0.011097227 0
0.098949537 -0.010087448 0.20627043 1.5951646e-38 -0.052225456 0.99859071 0.0094460351 0
0.10482084 -0.009721525 0.20746194 1.5674705e-38 -0.066450171 0.99706781 -0.037949182 0
0.11175916 -0.009127168 0.20731182 1.5398119e-38 -0.10861643 0.99146432 -0.072117306 0
0.11745426 -0.0085758055 0.20725864 1.5397399e-38 -0.091688409 0.99377972 0.063207313 0
0.12223551 -0.0075910478 0.20778596 1.336261e-38 -0.57567912 0.71437645 0.39781877 0
-0.24645609 -0.0058561149 0.20819898 1.9084493e-38 -0.16360469 0.98163003 -0.098163277 0
-0.2425468 -0.0050491048 0.20686996 1.9269243e-38 -0.24310854 0.96917045 -0.040084373 0
-0.23738417 -0.0041293739 0.20644543 1.9362157e-38 -0.095401719 0.99536252 -0.012328597 0
-0.23037578 -0.0042376253 0.20800011 1.9177766e-38 0.02902196 0.99957031 -0.0041104294 0
-0.22535868 -0.0043652831 0.20709307 1.8992297e-38 0.0082207434 0.99965686 -0.024872418 0
-0.21921396 -0.0044783354 0.20694394 1.8623875e-38 0.048340067 0.99875748 -0.012109924 0
-0.21312921 -0.00465255 0.20743135 1.7794471e-38 4.6904304e-08 0.9999547 0.0095174229 0
-0.20711887 -0.0046495618 0.20672888 1.6964712e-38 -0.02993778 0.99861318 0.043306027 0
-0.20145281 -0.004561956 0.20697193 1.6964712e-38 -0.011304137 0.99956024 0.027415214 0
-0.19506225 -0.0040438129 0.20644459 1.7333494e-38 -0.2229628 0.97236151 -0.069287203 0
-0.1900405 -0.0016524234 0.20723248 1.724094e-38 -0.66927218 0.73702258 -0.094194181 0
-0.17308313 -0.0048940685 0.20873308 1.4934991e-38 0.83447194 -0.4738068 -0.28136054 0
-0.14498407 -0.0047192574 0.20680395 1.0692922e-38 -0.13180025 -0.98706818 0.09124171 0
-0.14176601 -0.0049756877 0.20571257 9.5872917e-39 -0.45368919 -0.17323931 -0.8741591 0
-0.13767642 -0.0051595382 0.20448875 3.0413992e-39 -0.12964268 -0.19445957 -0.97230566 0
-0.11684536 -0.0016403665 0.20732021 1.0695046e-38 0.56899631 0.81640565 0.098614641 0
-0.11124631 -0.0024336458 0.20736556 1.3092133e-38 -0.17778838 0.98402029 0.0097572291 0
-0.1056158 -0.0013386719 0.20639658 1.5028241e-38 -0.3639676 0.92631382 -0.097315386 0
0.0051825773 -2.2254253e-05 0.20456269 2.0097208e-38 0.13209164 0.99068731 -0.03302284 0
0.0097412895 -0.00046670309 0.20669828 2.102204e-38 0.087045044 0.99550456 -0.037333675 0
0.015819035 -0.0012154152 0.20670548 2.1022399e-38 0.27508965 0.96060264 -0.039600909 0
0.021394538 -0.0032671038 0.20633413 1.9638385e-38 0.40761119 0.91240412 -0.037039191 0
0.025350116 -0.0052138255 0.20695429 1.2631889e-38 0.44824973 0.89348561 -0.02748861 0
0.1196293 -0.00014724222 0.20403601 1.1299758e-38 -0.82168722 -0.32867435 0.46562153 0
0.12293811 -0.003485708 0.20729494 1.1026769e-38 -0.72049296 -0.10153048 0.68598944 0
-0.18694802 0.0020815269 0.20713806 1.5765457e-38 -0.89281714 0.4452928 -0.067762695 0
-0.12010038 0.0034915793 0.20885205 9.9571266e-39 0.99519104 0.087704219 0.043618564 0
-0.1193669 0.0015022327 0.20679578 1.0142231e-38 0.9036665 0.40397891 0.14208435 0
-0.10327189 1.9558633e-05 0.20898949 1.3184328e-38 -0.46342778 0.86892664 -0.173785 0
-0.099493764 0.0016693107 0.20684707 1.2354206e-38 -0.46266457 0.87552369 -0.13928294 0
-0.093357131 0.004699545 0.20728742 1.4659426e-38 -0.38757712 0.91286689 -0.12828869 0
-0.087179355 0.0056997431 0.20649455 1.4294985e-38 0.010577532 0.99625999 -0.085756458 0
-0.083800852 0.0058745029 0.20497137 2.0743629e-38 -0.28676394 0.95587951 -0.063725211 0
-0.043349762 0.0055161249 0.20852101 2.010043e-38 0.30006418 0.95272231 0.047766425 0
-0.038533837 0.0046400996 0.2062609 1.3368724e-38 0.15642086 0.98449588 -0.079375006 0
-0.032911945 0.0042918921 0.20714223 9.8656443e-39 0.077133358 0.98762965 -0.13652138 0
-0.026050791 0.0036485665 0.20756559 1.9546546e-38 0.14297681 0.97747004 -0.15527387 0
-0.020963429 0.003146715 0.20725536 1.2354935e-38 0.033025492 0.99531621 -0.090857141 0
-0.015067726 0.0029838954 0.20759651 2.1022036e-38 0.090792194 0.98413295 -0.15244447 0
-0.0091206981 0.0022729649 0.20670259 1.2721198e-38 0.10797799 0.99343997 -0.037652858 0
-0.003715693 0.0015134704 0.20768729 1.0602488e-38 0.15580836 0.98437566 -0.082027063 0
0.00235557 0.0005752758 0.20773411 1.8897943e-38 0.15112124 0.98586988 -0.072270289 0
0.11880389 0.0035480515 0.20540932 1.0655824e-38 -0.7542963 -0.40194568 0.51911151 0
0.1215731 0.0029542656 0.20823674 1.0933134e-38 -0.65339488 -0.28202549 0.70252168 0
-0.18400016 0.0082899649 0.20737271 1.2999235e-38 -0.84373474 0.52358311 -0.11820481 0
-0.12008412 0.0093255779 0.20868057 5.2537188e-39 0.99640846 0.016605854 0.08303304 0
-0.1198566 0.0085116271 0.20606697 8.6645941e-39 0.99734759 -0.011115351 0.071932137 0
-0.085344359 0.0060087945 0.20989615 2.0191545e-38 -0.37121308 0.92803234 -0.030934297 0
-0.08032611 0.0072943224 0.20713446 2.0283745e-38 -0.23638488 0.96427536 -0.11956258 0
-0.075341813 0.0077401865 0.20720652 2.0744368e-38 0.032180298 0.99931401 -0.018327193 0
-0.069116667 0.0072135436 0.20681229 2.0468492e-38 0.084441997 0.99285698 0.084287986 0
-0.063023061 0.0070866812 0.20694596 2.0652886e-38 -0.01469627 0.99956036 0.025748251 0
-0.056607001 0.0069522979 0.2067709 2.0837283e-38 0.026541812 0.99920171 -0.029856868 0
-0.050661117 0.006998674 0.20712629 1.9916043e-38 0.016531881 0.9996503 0.020640837 0
-0.046248 0.0066864272 0.20614558 2.0469221e-38 0.23333253 0.96647096 0.10719047 0
0.11723478 0.0091421241 0.2069639 8.6379597e-39 -0.70377696 -0.32864878 0.62983167 0
0.12048404 0.0062604854 0.20882399 1.0287764e-38 -0.55507219 -0.3307291 0.76322556 0
-0.18113105 0.014761985 0.20732905 1.1062772e-38 -0.8270036 0.54941231 -0.11921045 0
-0.17939328 0.016850287 0.20655245 1.1247879e-38 -0.97607452 0.14555183 -0.1615337 0
-0.12042717 0.016410062 0.20648588 8.3890891e-39 0.98184413 0.17483844 0.07357648 0
-0.11996 0.012741419 0.20603788 2.0272207e-39 0.99285519 0.099284723 0.066190265 0
0.11334494 0.015510891 0.20465025 1.9559828e-39 -0.89360839 -0.32755411 0.30687508 0
0.11589298 0.014911128 0.20761074 4.526976e-39 -0.71956903 -0.093791328 0.6880579 0
-0.17752032 0.020630499 0.20726846 1.1524112e-38 -0.81980836 0.57095259 -0.043902151 0
-0.17149484 0.023842182 0.20830667 1.4013036e-38 -0.24154781 0.96040219 0.13886075 0
-0.12170941 0.020398872 0.20763344 9.0341011e-39 0.92679131 0.34344435 0.15199956 0
0.11376578 0.018186687 0.205239 4.8410798e-40 -0.82683587 0.24805081 0.50479037 0
0.1171784 0.02136963 0.2071254 9.4139931e-40 -0.65326279 0.51341367 0.55646569 0
-0.17076112 0.02433743 0.20621523 1.0048266e-38 -0.13529199 0.9830364 0.12383698 0
-0.16483387 0.025339687 0.20695814 1.0970221e-38 -0.33596456 0.93767184 -0.088877596 0
-0.15820603 0.027612424 0.20768705 1.0140104e-38 -0.40219295 0.91352892 -0.060874026 0
-0.15475056 0.028986633 0.20690627 1.290597e-38 -0.48165736 0.85715514 -0.18245891 0
-0.13299978 0.029825114 0.20580646 8.85044e-39 0.057033643 0.99833488 -0.0086425524 0
-0.12819615 0.029641001 0.20627391 4.9771473e-39 0.24627505 0.96870989 -0.030817015 0
-0.12413819 0.027115954 0.20685062 8.0203177e-39 0.75790679 0.65234554 0.0047616553 0
0.11894643 0.025112301 0.20540363 4.8363715e-40 -0.66738188 0.64034694 0.38020685 0
0.12291705 0.027658679 0.20816894 2.9744942e-40 -0.66105062 0.56289494 0.49614647 0
-0.15153427 0.031250205 0.20742853 6.7295817e-39 -0.49566194 0.84008014 -0.22041911 0
-0.14704011 0.031978179 0.20676057 8.3887443e-39 0.01085059 0.9998638 -0.012434838 0
-0.14139216 0.031342681 0.20608065 5.3462886e-39 0.13984002 0.98401403 0.11027789 0
-0.13581087 0.030280875 0.20764877 8.48094e-39 0.11976861 0.99249762 0.024574932 0
-0.13087401 0.030214457 0.2096801 1.0693991e-38 0.14542474 0.97590786 -0.16265132 0
0.12468113 0.031070255 0.20537823 6.462001e-39 -0.70868099 0.65043926 0.27331302 0
0.12784116 0.033677515 0.20761333 8.6652387e-39 -0.68197531 0.6846565 0.25720662 0
0.13280922 0.035259765 0.20794639 1.8064835e-38 0.057904717 0.86856169 0.49218667 0
0.13072267 0.036230657 0.20422038 1.3818772e-38 0.061056357 0.91584414 -0.39686489 0
0.13622043 0.037177913 0.20412138 1.2711694e-38 -0.079373017 0.98854476 0.12837109 0
0.1393434 0.037154518 0.20503202 1.4834364e-38 -0.12253241 0.98025322 0.15520802 0
-0.22000809 -0.037228968 0.21075822 1.8162536e-38 0.076902062 0.83431274 -0.54590142 0
-0.22823389 -0.030060291 0.21038462 1.9729862e-38 0.68512565 0.69882613 0.20553567 0
-0.22502854 -0.031547945 0.21159919 1.8900101e-38 0.31867385 0.8948561 -0.31253725 0
-0.21856977 -0.032978732 0.2134148 1.7978502e-38 -0.14713848 0.52314329 -0.83944702 0
-0.21487141 -0.030565098 0.21095674 1.7793754e-38 -0.8938939 0.25884366 -0.36599687 0
-0.23547192 -0.026337489 0.21347368 2.019084e-38 0.73359698 0.67933977 -0.018249566 0
-0.23104967 -0.028754562 0.21311381 1.9730221e-38 0.40165317 0.91458005 -0.047096025 0
-0.22491427 -0.029277077 0.21489337 1.9084493e-38 -0.069783673 0.86489981 -0.49706984 0
-0.2193296 -0.02934283 0.21492241 1.8347285e-38 -0.064448923 0.42069533 -0.90490979 0
-0.21441478 -0.029211253 0.2111491 1.7885949e-38 -0.81045985 0.27222124 -0.51870072 0
-0.15938686 -0.012315025 0.21408214 6.9128996e-39 0.46077055 0.83646291 -0.29668215 0
-0.28321812 -0.0098860376 0.21276456 1.9454348e-38 0.099449165 0.99449033 -0.033149723 0
-0.27912912 -0.0098982258 0.21404937 1.9453991e-38 -0.011370734 0.99992734 0.0040006079 0
-0.27313745 -0.0098750563 0.21317954 1.9453631e-38 0.058867548 0.99823868 0.0073614321 0
-0.26685029 -0.010021481 0.21314621 1.9361078e-38 0.10711831 0.99424016 0.0034963384 0
-0.26164022 -0.010220528 0.21285369 1.8346206e-38 -0.1637755 0.98506188 0.053204302 0
-0.25498217 -0.0080470406 0.21284634 1.7148379e-38 -0.29499656 0.9548527 0.03512086 0
-0.24933259 -0.0065162033 0.21237561 1.8993375e-38 -0.22518499 0.97429693 -0.0061000399 0
-0.17489485 -0.0077103674 0.21090893 3.9633555e-39 0.78903884 0.48109093 -0.38205901 0
-0.17132895 -0.0091108652 0.21204787 1.5672552e-38 0.14058799 0.93763012 -0.3179386 0
-0.16505858 -0.0097129215 0.21290721 1.3091079e-38 0.26944271 0.79855335 -0.53825003 0
-0.16060399 -0.011273881 0.21410003 1.0693995e-38 0.4876112 0.70028961 -0.52137291 0
-0.14260596 -0.0081029246 0.21296778 8.5731356e-39 -0.67232406 0.71187443 0.20301515 0
0.028739342 -0.0070779305 0.21261731 1.5950197e-38 0.4263387 0.90318638 0.04989494 0
0.03286849 -0.0086991498 0.2129095 1.8255449e-38 0.28227958 0.95914787 0.018803082 0
0.038628504 -0.0098144263 0.21297257 1.8532039e-38 0.10305134 0.99445915 0.020770598 0
0.0446321 -0.010203359 0.21297844 1.8900823e-38 0.0237891 0.99916631 -0.033178121 0
0.051339954 -0.010028183 0.21300817 1.917741e-38 -0.041582711 0.99802804 -0.047020141 0
0.058368731 -0.0097481413 0.21355712 1.9269966e-38 -7.8994099e-06 0.99908334 -0.042806882 0
0.062245321 -0.0097452952 0.21195202 1.9178133e-38 -0.011109209 0.99992299 -0.0055391295 0
0.069276817 -0.0098442454 0.21281615 1.9085937e-38 0.0036927075 0.9999314 0.011111007 0
0.075767502 -0.0099345464 0.21216428 1.880935e-38 0.0095226113 0.9999547 2.3426196e-08 0
0.080690593 -0.01001448 0.21298456 1.7887754e-38 0.014813145 0.99982882 0.011091523 0
0.086750545 -0.01018166 0.21292649 1.6872522e-38 0.037455894 0.99922037 -0.01247761 0
0.092297919 -0.0103022 0.21252032 1.6135317e-38 0.0095180282 0.9999094 -0.009518005 0
0.098849371 -0.010183818 0.2126824 1.5951645e-38 -0.051336993 0.99860799 -0.012109987 0
0.10503932 -0.0095688757 0.2120579 1.5859452e-38 -0.11035708 0.9938767 -0.0055120466 0
0.11196297 -0.0090317382 0.21311662 1.5858736e-38 -0.033052083 0.99752963 0.061985027 0
0.11768603 -0.0091795204 0.21375957 1.5674705e-38 0.018965332 0.99926531 0.033303291 0
0.12412117 -0.0085172383 0.212899 1.4659474e-38 -0.22802384 0.95128858 0.20749734 0
0.12809704 -0.0076142703 0.21342689 1.3921546e-38 -0.34883448 0.83802176 0.41956404 0
0.1347402 -0.0068216962 0.21507271 1.5950931e-38 -0.28745249 0.70061451 0.65307766 0
-0.24672799 -0.0059028929 0.21364053 1.8809701e-38 -0.19569801 0.9784922 -0.065233052 0
-0.24299558 -0.0050133071 0.21289785 1.8900819e-38 -0.22196881 0.97505248 0.0015377121 0
-0.23654215 -0.003963714 0.21311222 1.9085211e-38 -0.057861514 0.99832457 -0.00021134832 0
-0.23145775 -0.0041322079 0.21324944 1.890082e-38 0.028498374 0.99949205 -0.014264885 0
-0.22467817 -0.0043102577 0.21358037 1.8807904e-38 0.025871128 0.99963754 0.0074419486 0
-0.2193902 -0.0044903853 0.21265754 1.8531319e-38 0.013283802 0.99982345 0.013283802 0
-0.21292157 -0.0045619975 0.21292359 1.7701557e-38 -0.0037823622 0.9967103 -0.080958173 0
-0.20664915 -0.0046007796 0.21429177 1.6596287e-38 0.02507632 0.99922949 0.030193144 0
-0.20095122 -0.0046086768 0.21310848 1.6595568e-38 -0.058908876 0.99825674 -0.0036435702 0
-0.19478771 -0.0034073349 0.21310945 1.6688125e-38 -0.39054245 0.91527086 -0.098772205 0
-0.1907869 -0.0013670926 0.21280797 1.6595929e-38 -0.4785693 0.86802644 -0.13229345 0
-0.11725545 -0.0019736898 0.2134074 1.106347e-38 0.53961223 0.8416729 0.020134224 0
-0.11102535 -0.0022856269 0.21277115 1.3553471e-38 -0.15066111 0.98782504 -0.038767606 0
-0.10665355 -0.0010400418 0.21267192 1.4659458e-38 -0.35540503 0.92851406 -0.107466 0
0.0099162553 -0.00018044472 0.2130098 2.0930203e-38 0.14968255 0.98473424 -0.088845879 0
0.015720595 -0.0010430334 0.21238008 2.1022399e-38 0.23698337 0.97151345 -0.00061130681 0
0.021181967 -0.0033101861 0.21258141 1.733349e-38 0.43266198 0.89920962 0.065005645 0
0.024988674 -0.0051222146 0.21156855 1.7703725e-38 0.4675667 0.88208723 0.057476524 0
0.12883763 -0.0025396654 0.21186228 1.2522051e-38 -0.44931257 -0.0041484772 0.89336503 0
0.13546203 -0.0030314298 0.21395154 1.6596301e-38 -0.20258637 0.053303432 0.97781265 0
0.13954882 -0.0034960157 0.21478729 1.6965443e-38 -0.42835143 0.13771373 0.89305651 0
-0.18792883 0.0017328024 0.21279652 1.5673616e-38 -0.79032677 0.5992319 -0.1276902 0
-0.18571839 0.005969075 0.21180399 1.7239516e-38 -0.94445229 0.31481335 -0.094353259 0
-0.12006587 0.0043914542 0.21245861 9.680181e-39 0.99911535 0.039883118 -0.013338709 0
-0.11957497 0.0010834544 0.21265328 1.0325545e-38 0.9684214 0.24922362 0.0068955556 0
-0.10323584 0.00085639569 0.21282528 1.2815546e-38 -0.42802536 0.88749093 -0.17074569 0
-0.099145912 0.0029996685 0.21376772 1.1709187e-38 -0.4199619 0.89298499 -0.16189457 0
-0.094204836 0.0048791538 0.21226162 1.1155988e-38 -0.321603 0.94499254 -0.059670839 0
-0.088162884 0.0058893496 0.21237345 1.6043072e-38 -0.04642107 0.99872392 -0.019890169 0
-0.043985575 0.0056500658 0.21364301 1.8900803e-38 0.23734783 0.97118378 0.021634445 0
-0.038335864 0.0046076244 0.21335784 7.8391355e-39 0.054326285 0.99636841 0.065563567 0
-0.032596096 0.0046365582 0.2126831 8.2997549e-39 0.0025754631 0.99999338 -0.002575577 0
-0.026825637 0.0042685228 0.21218973 1.3457658e-38 0.11197013 0.99228776 -0.053176314 0
-0.021634247 0.0038757853 0.21352588 1.2901234e-38 0.089031115 0.98906648 -0.11756271 0
-0.014977607 0.0034624711 0.21284182 1.6960006e-38 0.056301158 0.99769974 -0.037755486 0
-0.0088605499 0.0027203308 0.21354219 1.0320838e-38 0.12684241 0.98785049 -0.089790419 0
-0.002485509 0.0017608694 0.21202315 1.023332e-38 0.16403216 0.97786885 -0.12986928 0
0.0029722117 0.00095711998 0.21455353 1.521154e-38 0.19657356 0.97550428 -0.09874244 0
0.0071694627 0.00017956237 0.21189003 2.0653976e-38 0.1475815 0.98414141 -0.098414183 0
0.12498578 0.0040540518 0.21115248 1.1301915e-38 -0.5127691 -0.27954149 0.81174165 0
0.12903386 0.0029081332 0.21257263 1.1874523e-38 -0.33879879 -0.18092036 0.92330015 0
0.13427007 0.0029774983 0.21424858 1.7332788e-38 -0.34392148 -0.23954895 0.90792853 0
0.13836946 0.00087679434 0.21510236 1.724167e-38 -0.38022208 -0.29247808 0.87743253 0
-0.18460517 0.0086144032 0.21305409 1.1892529e-38 -0.88156974 0.44907603 -0.14548375 0
-0.12016136 0.0088014863 0.21311852 9.4028795e-39 0.9955433 0.059541542 0.073132314 0
-0.085867204 0.0063562915 0.21508162 2.0191542e-38 -0.2250862 0.97379798 -0.03245981 0
-0.081482448 0.0075525451 0.21319342 2.0375938e-38 -0.2776109 0.95567077 -0.098110072 0
-0.074426927 0.0077415309 0.21241817 1.9730211e-38 0.13819125 0.99040306 -0.00223614 0
-0.069300622 0.0071468782 0.21347103 2.0929118e-38 0.062949635 0.99617994 -0.060522195 0
-0.062997751 0.0070115244 0.21335629 2.0745083e-38 2.0182392e-06 0.99944568 -0.033292264 0
-0.056558158 0.0071106735 0.21277697 2.0285178e-38 0.014790997 0.99971825 0.0185648 0
-0.0504044 0.0068742344 0.21296784 1.6781746e-38 0.075215645 0.99698478 0.019079847 0
-0.046220914 0.0062847259 0.21171075 1.7149809e-38 0.22696203 0.97269422 0.04851985 0
0.12313115 0.0089490311 0.21155828 9.5663928e-39 -0.50316584 -0.24756062 0.82797211 0
0.12963361 0.0094438279 0.21418929 9.0351773e-39 -0.31502822 -0.20301595 0.92711473 0
0.13258366 0.006841857 0.21465914 1.5581071e-38 -0.35629293 -0.2531189 0.89943659 0
-0.18171521 0.01532416 0.21370856 1.0417044e-38 -0.87254786 0.46535641 -0.14867303 0
-0.12115698 0.01532654 0.21260783 7.4664125e-39 0.95627701 0.2307083 0.17974426 0
0.11910553 0.016414769 0.21065083 2.779184e-39 -0.67819691 -0.015832631 0.73470974 0
0.12219102 0.014494046 0.21223058 4.251433e-39 -0.43342754 -0.14123611 0.8900522 0
0.1270953 0.014191839 0.21438554 6.0028123e-39 -0.21991304 -0.093414307 0.97103661 0
-0.17727228 0.021623423 0.21332406 9.0344739e-39 -0.75333357 0.65756702 -0.0096961437 0
-0.17086217 0.023646403 0.21219233 1.0509247e-38 -0.11943742 0.99189109 0.043437134 0
-0.12220773 0.020446494 0.21284232 9.4028865e-39 0.98206621 0.18300083 0.045350917 0
0.1189996 0.019341594 0.210352 1.4023606e-39 -0.61766595 0.23656313 0.75001776 0
0.12227692 0.021465868 0.21196036 1.2165303e-39 -0.48755392 0.23116861 0.84193361 0
0.1268276 0.021034891 0.21430385 2.3200094e-39 -0.38910645 0.11757791 0.91365838 0
-0.16490895 0.025213715 0.21304271 8.3891017e-39 -0.41634211 0.90269053 0.1086693 0
-0.15898111 0.027774772 0.21325572 8.9422768e-39 -0.49285635 0.85616523 -0.15515701 0
-0.12721899 0.029617853 0.21253166 1.3459854e-38 0.62522429 0.78034949 -0.012216285 0
-0.12409432 0.026622774 0.21254469 8.0199576e-39 0.81448048 0.57262576 0.093387507 0
0.12373221 0.025411818 0.21124572 8.4702326e-40 -0.5310967 0.42746258 0.73158187 0
0.12673621 0.028625313 0.21183351 1.2910244e-38 -0.65872526 0.31801462 0.68187076 0
-0.15257907 0.031329006 0.21259673 9.6794846e-39 -0.37367257 0.92749083 -0.01138801 0
-0.14618401 0.031925458 0.21393803 1.0140461e-38 0.17244199 0.97979128 0.10135472 0
-0.14192142 0.030866109 0.21355648 1.032521e-38 0.25918046 0.96278042 0.076677099 0
-0.13590512 0.030228797 0.21318106 7.9277662e-39 -0.037464116 0.99928492 -0.0051172976 0
-0.13008077 0.030395964 0.21379939 1.8161475e-38 0.12367459 0.99214393 0.018840561 0
0.12896867 0.031234616 0.21141896 1.0410822e-38 -0.059873451 0.56388211 0.82368213 0
-0.23638134 -0.025949532 0.21878302 2.0283037e-38 0.47940338 0.87051499 0.11124773 0
-0.2308441 -0.026821373 0.21827607 1.9730221e-38 0.027295295 0.90166277 -0.43157762 0
-0.22686528 -0.028899105 0.21758984 1.9453275e-38 -0.041526292 0.82787579 -0.55937213 0
-0.15823768 -0.012042351 0.21752363 1.0323433e-38 0.37618604 0.80611438 -0.45679721 0
-0.278023 -0.009961552 0.21814603 1.92696e-38 0.022223925 0.99753708 0.066526607 0
-0.2730774 -0.009913981 0.2197319 1.9177404e-38 0.028653517 0.99918115 -0.02856514 0
-0.26646122 -0.010123695 0.21906941 1.9084849e-38 0.15799457 0.98743647 0.0025973401 0
-0.26142737 -0.010557288 0.21926345 1.8346562e-38 -0.14615436 0.98808068 0.048327044 0
-0.2547712 -0.0081565622 0.21911389 1.7517163e-38 -0.31739637 0.94774282 0.032297924 0
-0.25000295 -0.0066763759 0.21881767 1.8901176e-38 -0.26720399 0.96343875 0.019690478 0
-0.17234723 -0.007653323 0.2163251 1.8715012e-38 -0.21922542 0.93953913 -0.26307127 0
-0.16221137 -0.0075876256 0.2167428 1.419707e-38 0.44353354 0.65677375 -0.60985762 0
-0.16058247 -0.010034306 0.21767351 6.8210641e-39 0.60860622 0.63987148 -0.46921521 0
-0.15139541 -0.0067505557 0.21622667 1.3643183e-38 0.7513054 -0.54260951 -0.37565279 0
-0.14292987 -0.0086002229 0.21725285 7.3742393e-39 -0.71767735 0.58043408 -0.38475385 0
0.028098954 -0.0071176356 0.21829511 1.751752e-38 0.39165911 0.91833609 0.05711193 0
0.033017643 -0.0087615559 0.21901979 1.8531319e-38 0.23126717 0.97287989 -0.0044945236 0
0.039066184 -0.0097823972 0.22001554 1.8347646e-38 0.10817045 0.99193758 -0.066023193 0
0.044702105 -0.009953157 0.21936075 1.8716432e-38 -0.0099765407 0.99927992 -0.03660785 0
0.050788719 -0.0098544564 0.21821769 1.8900823e-38 -0.042776685 0.99880397 -0.023684451 0
0.05704109 -0.0096442681 0.21958694 1.8993379e-38 -0.01999053 0.99971133 -0.013325817 0
0.06318716 -0.0096712271 0.21928538 1.9177771e-38 0.019026998 0.99980772 -0.0047455458 0
0.069281973 -0.0098146833 0.21922581 1.9085574e-38 0.023325128 0.99970573 -0.0066624144 0
0.075521901 -0.0099120298 0.21878667 1.8809349e-38 0.019410392 0.99977708 -0.0083038053 0
0.081477672 -0.01003347 0.21904987 1.8347651e-38 0.0053689871 0.99998558 0.00015831651 0
0.087030947 -0.01012204 0.21843019 1.7333857e-38 0.025906773 0.99960274 -0.011100554 0
0.093385987 -0.010235859 0.21871915 1.6411544e-38 -0.029124809 0.99926406 -0.024961432 0
0.098646954 -0.0099378889 0.21955784 1.6136036e-38 -0.082782768 0.99533004 -0.049650606 0
0.10466877 -0.0094948737 0.217738 1.5860169e-38 -0.066175506 0.99725056 -0.033347841 0
0.11017101 -0.0094140219 0.21967128 1.6043484e-38 -0.033191849 0.99911517 0.025829664 0
0.11655711 -0.0092103714 0.21899956 1.595129e-38 -0.03320621 0.99862432 -0.040582191 0
0.12310263 -0.0088999588 0.21978951 1.724203e-38 -0.029444892 0.99945968 -0.014610639 0
0.12906215 -0.0086909821 0.21877904 1.705728e-38 -0.037630945 0.99286675 0.11313479 0
0.13517544 -0.0082990201 0.21838877 1.6596302e-38 -0.10405119 0.93872416 0.32858828 0
0.14098175 -0.007655927 0.21819755 1.641227e-38 -0.0075129471 0.81977832 0.57263172 0
0.1448368 -0.00735904 0.21732597 1.6504465e-38 -0.62746334 0.30578452 0.71609056 0
-0.24679592 -0.0058357143 0.21732953 1.8901896e-38 -0.22722925 0.97384137 0 0
-0.24262659 -0.0047227098 0.2195881 1.8900817e-38 -0.20609307 0.97842056 -0.014793574 0
-0.23675521 -0.0040536565 0.21973364 1.8624949e-38 -0.026526246 0.99964815 -3.2745593e-05 0
-0.23180747 -0.0041818577 0.21967216 1.8808982e-38 0.048034955 0.99883866 0.0037344773 0
-0.22523627 -0.0041870936 0.21871504 1.8532395e-38 8.3810635e-05 0.99944204 -0.033398408 0
-0.21876502 -0.0043284097 0.21840678 1.8255449e-38 0.037684299 0.99911219 -0.018836766 0
-0.2127863 -0.0044467007 0.21929507 1.7241658e-38 0.071602017 0.99743247 -0.0012552638 0
-0.20671034 -0.0048007565 0.21836734 1.6227503e-38 0.039347012 0.99914473 -0.012708016 0
-0.20043309 -0.0044408548 0.21942486 1.631898e-38 -0.13839449 0.98829108 -0.064246938 0
-0.19449599 -0.0030380064 0.21920021 1.6411178e-38 -0.39858148 0.91657984 -0.031846125 0
-0.19104515 -0.0011244123 0.21935622 1.6503375e-38 -0.60825366 0.7916671 -0.057363532 0
-0.11743449 -0.0017002423 0.21898526 1.0970914e-38 0.63564426 0.76945072 -0.062464487 0
-0.11061154 -0.0016442477 0.21901648 1.4106284e-38 -0.31182429 0.92868 -0.20079565 0
-0.10689329 -0.00036309328 0.21885735 1.4751654e-38 -0.40883788 0.90460157 -0.12061331 0
0.011981417 -4.5664194e-05 0.22148022 2.1114594e-38 0.22722958 0.97384125 0 0
0.015914835 -0.0013546222 0.21948905 2.0468861e-38 0.38784003 0.91815305 0.081086695 0
0.020762313 -0.0036286488 0.21936388 1.6687033e-38 0.46573803 0.88093239 0.083941892 0
0.024757363 -0.005579466 0.21841985 1.908448e-38 0.41396973 0.90888739 0.050526481 0
0.14211783 -0.0023622615 0.21649347 1.7518976e-38 -0.19619288 -0.50449687 0.84082776 0
-0.18788433 0.0030072243 0.21862769 1.585765e-38 -0.84588432 0.52139163 -0.1123855 0
-0.12022597 0.0040916288 0.21977167 9.6801782e-39 0.99561143 0.070721038 0.061289594 0
-0.11987766 0.0015495826 0.21793292 1.0325546e-38 0.94644064 0.31849274 0.053032715 0
-0.10464207 0.00097787287 0.21882558 1.2631154e-38 -0.56595343 0.80570841 -0.17473002 0
-0.09879645 0.0039564823 0.21889138 1.0050034e-38 -0.33892736 0.93508506 -0.10365441 0
-0.093039088 0.0050261007 0.21866885 1.0141843e-38 -0.17677797 0.98384207 -0.028359549 0
-0.088970684 0.0057054539 0.21815677 1.3460167e-38 -0.13764787 0.98944187 0.04536235 0
-0.043913335 0.0055846595 0.21947983 2.1297888e-38 0.26896998 0.95991749 0.078826673 0
-0.039717324 0.0043757004 0.21818887 1.2997772e-38 0.24994233 0.96729189 0.043303374 0
-0.032864451 0.0042153755 0.21877226 5.5328126e-39 -0.12100835 0.99070132 0.062193189 0
-0.026992353 0.0044973847 0.21873443 8.9393481e-39 0.049845859 0.99833679 0.02896744 0
-0.020998606 0.004255299 0.21926212 7.1822362e-39 0.040614571 0.99873888 -0.029515782 0
-0.015544514 0.0038395959 0.21839482 9.304888e-39 0.093337595 0.99176991 -0.087637596 0
-0.0097775403 0.0035502163 0.21911561 1.1149152e-38 0.085659802 0.99189514 -0.093843199 0
-0.0029741474 0.0024528063 0.21935099 1.1331018e-38 0.20841628 0.97295213 -0.099633284 0
0.002048502 0.0013883259 0.21925513 1.4098335e-38 0.17418796 0.98450625 -0.020150701 0
0.0083723525 0.00047247167 0.21906307 2.0746171e-38 0.13578764 0.99003309 -0.03736541 0
0.14106381 0.00026978756 0.21617183 1.7518257e-38 -0.42857137 -0.28571483 0.85714275 0
-0.18649477 0.0062091462 0.22114469 9.2192141e-39 -0.94444293 0.31481493 -0.094441473 0
-0.18474326 0.010006172 0.21849333 1.0878378e-38 -0.79939884 0.59172297 -0.10404527 0
-0.12118338 0.0097304266 0.21993616 9.0340969e-39 0.95293415 0.21013072 0.21854424 0
-0.085642666 0.0065623927 0.21919082 2.0284101e-38 -0.33624002 0.93836743 -0.080057926 0
-0.081159979 0.0079953521 0.21912611 2.0283378e-38 -0.19628131 0.97914064 -0.052509248 0
-0.074294887 0.0082778241 0.21925794 2.0190088e-38 -0.079393297 0.99644309 -0.02824601 0
-0.069125801 0.0080111818 0.21883473 2.0096806e-38 0.10124108 0.95470935 -0.27978629 0
-0.063068211 0.0074651469 0.21943374 2.0006051e-38 0.12965879 0.9841975 -0.12059782 0
-0.056352146 0.0070310701 0.21941018 2.0650343e-38 0.053994797 0.99846321 0.012482479 0
-0.051381093 0.0067098388 0.21910892 2.0466683e-38 0.085000895 0.99527341 0.046964493 0
-0.046687085 0.0062733777 0.21832085 2.0468489e-38 0.17991616 0.98245341 0.049148198 0
-0.18206085 0.015610506 0.21868052 1.1800697e-38 -0.90391511 0.42695051 -0.02550832 0
-0.12178782 0.014467097 0.21837801 9.5876322e-39 0.98334223 0.15008259 0.10253481 0
-0.18020836 0.018576657 0.21750738 1.7055489e-38 -0.75185162 0.65787208 -0.043857977 0
-0.1775005 0.021164248 0.21998361 1.2722293e-38 -0.55706584 0.82989597 0.030827075 0
-0.17038043 0.022658285 0.21918598 1.2445352e-38 -0.12708762 0.98801649 0.087590851 0
-0.16762458 0.023187019 0.21928728 6.0842095e-39 -0.34372565 0.93859041 -0.03001239 0
-0.12239869 0.020737566 0.21862435 7.1898326e-39 0.9812122 0.18864143 0.040460341 0
-0.16382764 0.025047867 0.21841826 8.9422768e-39 -0.55391365 0.82996976 0.06580203 0
-0.15996096 0.027970765 0.21932523 1.1892536e-38 -0.59849644 0.79903883 -0.057784475 0
-0.14068189 0.029775582 0.21986866 9.8638716e-39 0.071685456 0.974989 0.21037516 0
-0.13715686 0.029722914 0.22040026 1.0323776e-38 -0.033093527 0.99280941 0.11504035 0
-0.12756673 0.02907891 0.21875848 1.2076209e-38 0.62789357 0.76878375 0.12133117 0
-0.12451396 0.026290238 0.21864948 7.0058085e-39 0.76725358 0.62902051 0.12512034 0
-0.15612891 0.030052967 0.21898401 1.3818793e-39 -0.24050847 0.9695276 0.046603054 0
-0.15216005 0.031251274 0.21864054 9.6794804e-39 -0.27242222 0.96216792 -0.0043688053 0
-0.14716309 0.031423826 0.21899797 1.0878025e-38 0.1899417 0.96397793 0.18619542 0
-0.13892719 0.03017937 0.21737629 1.4842801e-38 0 0.99508029 0.09907198 0
-0.13384853 0.030302797 0.2184858 1.5580361e-38 -0.04227607 0.99692816 0.065930977 0
-0.12967002 0.030095801 0.21838319 1.106242e-38 0.38385797 0.92133838 0.061552145 0
-0.235599 -0.025695223 0.22308151 2.0006805e-38 0.17026852 0.97393227 -0.149882 0
-0.23314551 -0.026078887 0.22382967 1.9822058e-38 -0.28268909 0.83850181 -0.46583426 0
-0.2776148 -0.0099774497 0.22485325 1.9177044e-38 -0.058025394 0.9983058 -0.0042995117 0
-0.2729817 -0.0099043995 0.22429217 1.9084849e-38 0.008419008 0.99965268 0.02497516 0
-0.26632008 -0.0099752415 0.22483644 1.8900456e-38 0.083275758 0.99531162 -0.049191892 0
-0.26140419 -0.010497968 0.22557935 1.7608994e-38 -0.076598346 0.99400932 -0.077962294 0
-0.25453362 -0.0084017403 0.22496383 1.8254728e-38 -0.3439222 0.93762779 0.050711077 0
-0.25055763 -0.0070828688 0.22570056 1.8623869e-38 -0.30176693 0.95214081 0.048626319 0
0.028088419 -0.0073015392 0.22496197 1.7425326e-38 0.37427983 0.9267664 0.031915154 0
0.033796087 -0.0088510709 0.22492497 1.807106e-38 0.1923033 0.98130894 0.0072144037 0
0.039232533 -0.0095489807 0.22625038 1.807106e-38 0.072881214 0.99734056 2.9421917e-05 0
0.045006663 -0.0097324243 0.22483963 1.8624235e-38 0.011093819 0.99955344 -0.027745361 0
0.050805971 -0.0096911956 0.22494572 1.8624236e-38 -0.018500093 0.99927467 -0.033284646 0
0.056978382 -0.009551065 0.22557385 1.8808626e-38 0.004747842 0.99997735 -0.0047636842 0
0.062977396 -0.0096281236 0.22537504 1.8808987e-38 0.014238667 0.99988747 -0.0047234874 0
0.068619683 -0.0097457198 0.22538137 1.9085216e-38 0.023284955 0.99964058 -0.013285447 0
0.075041987 -0.0099169975 0.22521189 1.917741e-38 0.037427884 0.99916124 -0.016612368 0
0.081399307 -0.0099750552 0.22539409 1.8900823e-38 0.0098942276 0.99950516 -0.029858671 0
0.087246761 -0.0099795219 0.22473693 1.7887033e-38 1.4765033e-05 0.99891764 -0.046512902 0
0.092480391 -0.0099255443 0.2248497 1.7426415e-38 -0.029432446 0.99736392 -0.066324726 0
0.098624945 -0.0095618153 0.22488184 1.6504101e-38 -0.028373875 0.99707007 -0.071037315 0
0.10599227 -0.0095422519 0.2241815 1.650446e-38 0.023881918 0.99836856 0.051864453 0
0.11079011 -0.0094769653 0.22578542 1.7242385e-38 -0.066276379 0.99742043 0.027566571 0
0.11692366 -0.0091008805 0.2249485 1.8440569e-38 -0.037344165 0.99710566 0.066225216 0
0.12339466 -0.0090615964 0.22490993 1.9454365e-38 0.023719875 0.99646592 0.08057946 0
0.12984264 -0.0094490973 0.22524095 1.9639117e-38 0.11031932 0.9852376 0.13090663 0
0.13478605 -0.0096773067 0.22421949 1.8624965e-38 -0.012601348 0.97455937 0.22377488 0
0.14137401 -0.0096840169 0.22338881 1.7057998e-38 -0.17796539 0.97118789 0.15850066 0
-0.24666438 -0.0058645746 0.22520652 1.8531675e-38 -0.3160691 0.94820958 -0.031607013 0
-0.2424379 -0.0046281475 0.22489156 1.862423e-38 -0.25124514 0.96768838 -0.021333646 0
-0.23695409 -0.0040903883 0.2249718 1.8624589e-38 -0.038039427 0.99926502 0.0047359238 0
-0.23131506 -0.0041469499 0.2252315 1.8532395e-38 0.019910276 0.9997794 -0.0066857846 0
-0.22517616 -0.0040195617 0.22577064 1.8164331e-38 0.011028841 0.99982917 -0.014834549 0
-0.21901937 -0.004204182 0.22455902 1.7702634e-38 0.02092422 0.9983151 -0.054121584 0
-0.21300533 -0.0043648118 0.22468837 1.6965788e-38 0.076339759 0.99672103 -0.026824482 0
-0.20662741 -0.0045657731 0.22441642 1.631934e-38 -0.048911981 0.99837345 -0.029291188 0
-0.20161755 -0.0042057512 0.22478716 1.631898e-38 -0.12296262 0.98826945 -0.090574406 0
-0.1943775 -0.0023569874 0.22567701 1.631898e-38 -0.4650996 0.8810913 -0.085792534 0
-0.19131492 -0.00068189728 0.22470546 1.6411175e-38 -0.52919197 0.84560883 -0.070011549 0
-0.11643155 -0.0013357049 0.22490491 1.1708838e-38 0.039961409 0.98891562 -0.14300005 0
-0.11195544 -0.00074472232 0.224617 1.3737502e-38 -0.2415915 0.95362413 -0.17953981 0
0.011966009 -3.7537029e-05 0.22735906 2.092876e-38 0.34425461 0.93887633 0 0
0.014942355 -0.0012486404 0.22451286 2.1575208e-38 0.46161768 0.88664573 0.027721742 0
0.020906018 -0.0042240806 0.22548616 1.3924404e-38 0.42427918 0.90492302 0.033189464 0
-0.18848918 0.0029035616 0.22511674 1.3736792e-38 -0.82654279 0.56102079 -0.045635965 0
-0.12117388 0.0034377468 0.22615726 1.0048959e-38 0.9303565 0.29329699 0.22003123 0
-0.11961596 0.00020929475 0.22665988 1.041774e-38 0.79127806 0.60867435 0.058263436 0
-0.10881166 0.00040541292 0.22583339 1.401373e-38 -0.32918677 0.92869133 -0.17078799 0
-0.10523155 0.0020961799 0.2248292 1.2538232e-38 -0.50801456 0.83664 -0.20482892 0
-0.099821933 0.0045993738 0.224519 1.2628586e-38 -0.31147081 0.93247706 -0.18295486 0
-0.093866333 0.0057058665 0.22326249 8.8569041e-39 -0.094556384 0.95600581 -0.27769044 0
-0.048933517 0.0057921316 0.22551289 1.9541816e-38 0.16314796 0.98102987 0.10470513 0
-0.04529269 0.0051359767 0.22531332 2.0002077e-38 0.18217319 0.97606617 0.11877582 0
-0.03994631 0.004350665 0.22408475 1.4092965e-38 0.12531546 0.99204206 -0.01219015 0
-0.032524876 0.0040365495 0.22413085 4.7905686e-39 -0.042698957 0.9960438 0.07793244 0
-0.025951823 0.0041451654 0.22534719 7.3759923e-39 -0.092408553 0.99255991 0.07928054 0
-0.020946799 0.0043278616 0.22530501 7.459179e-39 0.0049323011 0.99981236 0.018732479 0
-0.015212703 0.0044400799 0.2250618 9.4899772e-39 0.011783142 0.99731612 -0.07226222 0
-0.0098042842 0.0041236295 0.22514005 1.2251526e-38 0.10466607 0.98963737 -0.098300464 0
-0.0034486281 0.0031060097 0.22583362 1.5389064e-38 0.21256602 0.97674417 -0.028044041 0
0.0031348323 0.0015124523 0.22418609 1.6957118e-38 0.17103282 0.98042965 -0.0974961 0
0.0092419479 0.00066582195 0.22479905 2.0837644e-38 0.20423305 0.97777408 -0.04739847 0
-0.18630227 0.0069047408 0.224571 1.1431195e-38 -0.92314303 0.38437694 -0.0078251828 0
-0.18488921 0.010226676 0.22428314 1.3736445e-38 -0.85340381 0.52073419 -0.023189032 0
-0.1217642 0.0086280396 0.22422653 9.6794663e-39 0.97484303 0.15706405 0.15815182 0
-0.092664391 0.0069118924 0.22648738 1.2999908e-38 -0.13736084 0.96042639 -0.24230796 0
-0.087055147 0.0071167648 0.22551365 1.9362144e-38 -0.15452601 0.96523875 -0.21079792 0
-0.081905887 0.0079234978 0.22485356 2.0468137e-38 -0.1735075 0.98421079 -0.034988612 0
-0.075394899 0.0082114032 0.22468327 1.585582e-38 -0.050471537 0.99862343 0.014276421 0
-0.068597883 0.008534913 0.22523576 1.7145103e-38 0.055369433 0.99361265 0.098326445 0
-0.061968911 0.0075781243 0.22508487 1.9170871e-38 0.20904627 0.97600573 0.060930006 0
-0.057618614 0.0069743306 0.22475578 2.0651048e-38 0.089560539 0.99556988 0.028627692 0
-0.052576616 0.0064551849 0.22497115 2.0281549e-38 0.14758155 0.98414141 0.098413929 0
-0.18217969 0.015444485 0.22533253 1.2998885e-38 -0.90230441 0.43078774 -0.01639059 0
-0.12223551 0.014931768 0.22552337 8.6649571e-39 0.99533939 0.070158377 0.066161528 0
-0.18003768 0.018986922 0.22573927 1.6410119e-38 -0.74114978 0.67056489 0.03224672 0
-0.17699412 0.021263359 0.22430728 1.1339359e-38 -0.47153488 0.8798095 0.059917975 0
-0.17156476 0.022635046 0.225135 8.7578842e-39 -0.12789375 0.9902662 0.054918967 0
-0.16720229 0.023579 0.2260251 8.4812973e-39 -0.37830764 0.92472792 -0.041971475 0
-0.12338588 0.021604948 0.22522527 8.3887331e-39 0.9268195 0.32423282 0.1894168 0
-0.16429672 0.025330137 0.22469978 1.5395608e-38 -0.59107089 0.7922855 -0.15138997 0
-0.15898131 0.028555689 0.22488916 1.1062416e-38 -0.47289523 0.87777156 0.07672815 0
-0.15216798 0.029787444 0.22702499 9.6798391e-39 -0.060872097 0.91704923 0.39410046 0
-0.1458558 0.029658003 0.22626637 1.1154968e-38 0.0078792488 0.98178494 0.18983221 0
-0.1405821 0.029480895 0.22553293 6.9136129e-39 0.087583058 0.99589723 0.022756211 0
-0.13499424 0.029532094 0.22476897 1.14312e-38 -0.070006311 0.9909116 0.11486177 0
-0.1285824 0.028276727 0.2252572 8.8497211e-39 0.48229313 0.85620522 0.18521866 0
-0.12513588 0.025211375 0.22493212 9.956063e-39 0.75845808 0.60892016 0.23228779 0
-0.15304154 0.030815886 0.2233097 9.1266653e-39 -0.19172312 0.96313286 0.18872528 0
-0.14770338 0.030550998 0.22383159 1.3920484e-38 0.11931755 0.95272654 0.27941987 0
-0.14362296 0.030264804 0.22228189 9.8642275e-39 0.3959434 0.91371769 -0.091371886 0
-0.2789467 -0.010208224 0.23142484 1.8900457e-38 -0.056888126 0.99827969 0.01418981 0
-0.27330732 -0.009971601 0.23042604 1.8808262e-38 0.0047367704 0.99994326 0.0095367106 0
-0.2673535 -0.0098864036 0.23118626 1.8716065e-38 -0.026189951 0.99963176 0.0070963418 0
-0.26023144 -0.010414165 0.23084505 1.6317895e-38 -0.042830985 0.998905 0.018824447 0
-0.25548726 -0.0090288101 0.23083711 1.5488496e-38 -0.35377419 0.93407047 0.048541345 0
-0.24945331 -0.0068753399 0.23151512 1.8439478e-38 -0.37113553 0.92856896 0.0042621084 0
0.027227491 -0.0073108403 0.23164257 1.7701913e-38 0.32560945 0.94377786 0.057112515 0
0.033165284 -0.0087976074 0.2304119 1.7886308e-38 0.17171001 0.98501027 0.016443407 0
0.039634943 -0.0095314085 0.2314316 1.7794473e-38 0.053966317 0.9983263 -0.020789281 0
0.044876449 -0.0096520437 0.23073879 1.8255452e-38 -8.2365965e-05 0.99999452 -0.0033190988 0
0.051667958 -0.0095611662 0.23041132 1.8347648e-38 -0.0041648876 0.99998271 -0.0041556652 0
0.056732178 -0.0095945755 0.23190682 1.8439845e-38 0.022189097 0.99961466 0.016680347 0
0.062168989 -0.0096831564 0.23135267 1.8439845e-38 -0.0036537419 0.99974757 0.022171566 0
0.068317398 -0.0097460086 0.23138295 1.8716432e-38 0.028543137 0.99959254 1.0538322e-05 0
0.075162664 -0.0098677622 0.23083733 1.8900823e-38 0.03318632 0.99944919 2.3179866e-06 0
0.081145339 -0.009937617 0.23104849 1.9084854e-38 -0.03327316 0.99923009 0.02078825 0
0.087297916 -0.0096774409 0.23077436 1.880899e-38 -0.053995494 0.99749553 -0.04568541 0
0.09324827 -0.0093993926 0.23187278 1.8716795e-38 -0.0062120366 0.99968368 -0.024371071 0
0.099399157 -0.0096740583 0.23034169 1.8440568e-38 0.066327989 0.99558878 0.066359729 0
0.10459204 -0.0098246746 0.23099811 1.8717155e-38 -0.0033177063 0.99964005 0.026622007 0
0.11081806 -0.0098816724 0.23107472 1.8993743e-38 0.028920326 0.99511802 0.094359837 0
0.11739736 -0.010098684 0.23174573 1.9178136e-38 0.071727887 0.97360009 0.21669786 0
0.12289234 -0.010118794 0.23073481 1.936217e-38 0.016199401 0.9682945 0.24928585 0
0.12813677 -0.010465277 0.2314364 1.9269974e-38 0.099602707 0.9653666 0.24113616 0
0.1342942 -0.010554996 0.22906779 1.9547278e-38 0.013004072 0.98632485 0.16429916 0
-0.24669445 -0.0057813507 0.23060876 1.8163252e-38 -0.33023927 0.94376487 0.015807301 0
-0.24268422 -0.0046172561 0.23072433 1.8347642e-38 -0.22858743 0.97352231 0.0014422633 0
-0.23690633 -0.0041188835 0.23110001 1.8439479e-38 0.022285372 0.99969029 0.011073976 0
-0.23036528 -0.0041776584 0.23081487 1.8347283e-38 -0.051301062 0.99856973 0.015061739 0
-0.22434919 -0.0040574758 0.23051481 1.8162892e-38 -0.026434066 0.99909949 0.033187568 0
-0.21918419 -0.0038851816 0.23197903 1.7609718e-38 -0.014207762 0.99985379 -0.0095185218 0
-0.21308659 -0.0041967402 0.23038752 1.714874e-38 0.071178809 0.99728358 -0.018948318 0
-0.20758927 -0.0043403436 0.23048246 1.6595567e-38 -0.042233825 0.99710047 -0.06330049 0
-0.20114824 -0.0034502756 0.23098359 1.6319338e-38 -0.13048135 0.9835701 -0.12475789 0
-0.19454516 -0.0021564234 0.23026453 1.6226784e-38 -0.42807326 0.90291888 -0.038611989 0
-0.1916801 -0.00040776806 0.23130423 1.631898e-38 -0.60971087 0.79262394 0 0
-0.11737163 -0.00053253816 0.23105314 1.1708479e-38 -0.016502867 0.99154216 -0.12873137 0
0.014953907 -0.0015536442 0.231107 1.8255075e-38 0.4811148 0.8700304 0.10759003 0
0.020660382 -0.0044764359 0.2310019 1.4938566e-38 0.4439548 0.89053738 0.099233858 0
-0.18864365 0.0027659317 0.23079778 1.3276171e-38 -0.81107712 0.58405906 0.032078493 0
-0.12154218 0.0023958581 0.23136276 9.9567623e-39 0.91726524 0.3871375 0.09353631 0
-0.11072072 0.0008855277 0.23208785 1.3644946e-38 -0.36968619 0.91916788 -0.13587663 0
-0.10421574 0.0039838138 0.23153551 1.4012986e-38 -0.45203289 0.87946659 -0.14901237 0
-0.10042421 0.0053676665 0.23060882 1.1247826e-38 -0.3491576 0.93424165 -0.072673403 0
-0.050236404 0.0058474941 0.23019716 1.5760709e-38 0.16439907 0.98639393 1.6053346e-07 0
-0.044514466 0.00473188 0.23149675 1.2997406e-38 0.17317165 0.98384356 -0.045423474 0
-0.038811274 0.0039707003 0.23055029 9.7683787e-39 0.11162671 0.99137247 0.068702534 0
-0.032809496 0.0036128655 0.23083733 9.3038259e-39 0.016278252 0.99491727 0.099370688 0
-0.026826691 0.0034478665 0.23101187 3.9672651e-39 0.020548033 0.99360096 0.1110625 0
-0.021007068 0.0036879659 0.23109712 4.3345945e-39 -0.08582782 0.98415786 0.15513518 0
-0.014644497 0.0043048854 0.23063235 7.0979284e-39 -0.10498682 0.98589158 0.13036686 0
-0.0096746478 0.0044059306 0.23111449 1.2717526e-38 0.080883719 0.99520314 0.055031028 0
-0.0024675066 0.0029031918 0.2312865 1.713824e-38 0.24690092 0.96893525 0.014296254 0
0.0033118599 0.0016803015 0.23027457 2.1022034e-38 0.12703107 0.99188781 0.0046544168 0
0.008533149 0.00099667767 0.23123033 2.0929479e-38 0.21706295 0.97606009 -0.013793873 0
-0.18636839 0.0065653771 0.23059858 5.7157801e-39 -0.91712767 0.3974196 0.030571446 0
-0.1847789 0.010056572 0.23101243 1.2169118e-38 -0.83340836 0.53059518 0.15459381 0
-0.12252948 0.0088160411 0.23110935 9.4954324e-39 0.99150181 0.052866928 0.11886652 0
-0.097483136 0.0064599831 0.23084682 1.1800637e-38 -0.26401657 0.95989621 -0.094310805 0
-0.092622288 0.0076474324 0.23078848 1.4013678e-38 -0.17759365 0.97582406 -0.12738889 0
-0.087639473 0.0080689676 0.23042481 2.0283745e-38 -0.044015098 0.97518969 -0.21695095 0
-0.081094153 0.0084402729 0.23043279 2.0745087e-38 -0.042017296 0.99775052 -0.052234642 0
-0.074686475 0.0081687057 0.23052533 2.0745089e-38 0.11717537 0.99212784 0.044184603 0
-0.06885986 0.0076968446 0.23135103 2.0837643e-38 0.016687676 0.99771559 0.06546057 0
-0.062601261 0.0075402772 0.23088174 2.0837642e-38 0.030932184 0.99847877 -0.045644797 0
-0.056728438 0.007426396 0.23148361 2.074508e-38 0.12158944 0.9797765 -0.15891485 0
-0.0524632 0.0063684969 0.23030196 2.1757055e-38 0.25392848 0.95920664 -0.12426954 0
-0.18180645 0.0151145 0.23115683 1.180034e-38 -0.86333251 0.47867209 0.15978086 0
-0.17973581 0.017366949 0.23366845 1.8622812e-38 -0.77330774 0.56709421 0.283548 0
-0.12275179 0.014365657 0.23131622 9.3106852e-39 0.97921884 0.09542156 0.17895588 0
-0.18047768 0.018195974 0.2291986 1.56722e-38 -0.74860579 0.65877545 0.074862063 0
-0.17790294 0.020052129 0.23151712 1.1615587e-38 -0.60382783 0.76984179 0.20672585 0
-0.17159683 0.022093695 0.23067868 5.9916566e-39 -0.23830068 0.96291804 0.1264976 0
-0.16760714 0.023608785 0.23049992 6.7295761e-39 -0.50379401 0.86382383 0 0
-0.12451535 0.020740362 0.23105957 9.4021662e-39 0.87155706 0.39496794 0.29049715 0
-0.16477819 0.025306884 0.23111692 8.2969074e-39 -0.48541334 0.87133813 0.071721025 0
-0.15879437 0.026892658 0.2308207 9.4032536e-39 -0.15726006 0.87339282 0.46092758 0
-0.15301174 0.027892569 0.23062399 8.7578828e-39 -0.12331939 0.86148739 0.49257678 0
-0.14720902 0.028602071 0.23124765 9.863873e-39 -0.11464978 0.94634277 0.30214348 0
-0.14077021 0.028709764 0.23143373 1.0785831e-38 0.022268761 0.96463203 0.26265761 0
-0.13511194 0.028625716 0.2305412 1.2076567e-38 0.12410988 0.95336556 0.27511984 0
-0.1293543 0.027135836 0.23086995 1.1246806e-38 0.44330776 0.85558707 0.26729956 0
-0.27795106 -0.010172687 0.23682798 1.8439479e-38 -0.042670187 0.99817806 0.042659499 0
-0.27179438 -0.010063719 0.23661643 1.8531673e-38 0.010742861 0.99821973 0.058667846 0
-0.26713374 -0.0099976035 0.23672815 1.8439119e-38 -0.026566051 0.99823463 0.053120892 0
-0.26092228 -0.01038049 0.2370373 1.4934243e-38 0.078029938 0.9969306 -0.0063843988 0
-0.25509727 -0.0089991456 0.23738621 1.733277e-38 -0.35663125 0.93424457 -0.0010917262 0
-0.24960907 -0.0070618009 0.23781696 1.7978501e-38 -0.36640912 0.93042982 0.0066877115 0
0.023512833 -0.0063288799 0.23758054 1.5949836e-38 0.35732999 0.93280071 0.046883717 0
0.026740341 -0.0073653632 0.23683786 1.7240935e-38 0.27756402 0.9590503 0.056397974 0
0.033156242 -0.0089420341 0.23716077 1.742533e-38 0.1630425 0.98661059 -0.0040814257 0
0.03895168 -0.0094207963 0.23684449 1.742569e-38 0.033174649 0.99944961 1.8478453e-05 0
0.044855028 -0.0096758185 0.23632465 1.7978865e-38 0.01657957 0.99984711 -0.0055510201 0
0.051282071 -0.0096372385 0.23767218 1.7886671e-38 -0.016626682 0.99959052 0.023289843 0
0.05724759 -0.0096408473 0.23691948 1.8071062e-38 0.0066633993 0.99995571 0.0066486318 0
0.063010886 -0.0097435918 0.23656586 1.8071062e-38 0.012511035 0.99991316 0.0041519077 0
0.069310114 -0.0098609086 0.23752645 1.8163258e-38 0.024978608 0.99937624 0.024964698 0
0.07428021 -0.0098907072 0.23661818 1.8255454e-38 1.8438341e-05 0.99968833 0.024965635 0
0.080868982 -0.0098459357 0.2368549 1.8255454e-38 -0.055368252 0.99778217 -0.036946174 0
0.087395214 -0.0094005093 0.23709501 1.8439846e-38 -0.028051764 0.99959242 0.0053132679 0
