# .PCD v0.7 - Point Cloud Data file format
VERSION 0.7
FIELDS x y z rgb normal_x normal_y normal_z curvature
SIZE 4 4 4 4 4 4 4 4
TYPE F F F F F F F F
COUNT 1 1 1 1 1 1 1 1
WIDTH 541
HEIGHT 1
VIEWPOINT 0 0 0 1 0 0 0
POINTS 541
DATA ascii
-0.1886757 -0.012191085 -0.21829064 1.7517886e-38 -0.13516675 0.98904526 0.059324734 0
-0.18118203 -0.012065379 -0.21961331 1.7610081e-38 0.13200177 0.99001336 -0.049487095 0
-0.17722207 -0.012324125 -0.21905819 1.742569e-38 0.023189967 0.99964201 -0.013343325 0
-0.17065929 -0.012381309 -0.21810296 1.7333494e-38 0.023895403 0.99835461 0.052124675 0
-0.16522895 -0.012639596 -0.2192324 1.7241299e-38 0.09470354 0.99478447 -0.037882376 0
-0.15925476 -0.013078387 -0.21899056 1.7149102e-38 0.033534635 0.99932688 -0.014872942 0
-0.15267889 -0.013095589 -0.21940765 1.7149103e-38 0.021528644 0.99976254 0.0033709372 0
-0.14724132 -0.013363679 -0.21804489 1.7241299e-38 0.10446671 0.99063474 -0.087918304 0
-0.14185521 -0.013715444 -0.21908434 1.6964712e-38 -0.0082386462 0.99952239 0.029786645 0
-0.13585535 -0.013483609 -0.21958494 1.6503014e-38 -0.00082379102 0.99526328 -0.097213052 0
-0.12858982 -0.013867185 -0.21888679 1.4842769e-38 0.044185098 0.99902147 0.0019449907 0
-0.12221437 -0.01398972 -0.21785557 1.548814e-38 0.013767853 0.9976632 0.066921942 0
-0.11688592 -0.014162685 -0.21864478 1.4842409e-38 0.055205513 0.99663144 -0.060648296 0
-0.11096312 -0.014488339 -0.21919611 1.613423e-38 0.0032917459 0.99985552 0.016674794 0
-0.10378231 -0.014676781 -0.21923098 1.6963992e-38 0.10935339 0.99184185 -0.065509357 0
-0.099080011 -0.015198691 -0.21900038 1.67796e-38 0.032931186 0.99860835 -0.041192658 0
-0.094058029 -0.015404059 -0.21901649 1.6595929e-38 0.037456516 0.99926388 -0.0082886405 0
-0.088169992 -0.015762547 -0.21899003 1.6503734e-38 0.090966925 0.99440682 -0.053666163 0
-0.081546649 -0.015327426 -0.21876764 1.6503734e-38 -0.0885766 0.99268204 -0.082076542 0
-0.075230591 -0.014936949 -0.219108 1.6227147e-38 -0.088967428 0.99551147 -0.032275882 0
-0.069776691 -0.016460678 -0.21873775 1.6411538e-38 0.19454511 0.97938269 -0.054422487 0
-0.42235112 -0.011859217 -0.21774465 1.7794112e-38 -0.016730294 0.99954259 -0.025194256 0
-0.41661298 -0.011698737 -0.22041599 1.7885949e-38 -0.071682036 0.99522209 0.06629204 0
-0.41128653 -0.011521888 -0.21950467 1.8070341e-38 -4.6832015e-06 0.9998185 0.019050378 0
-0.40505636 -0.011680356 -0.21924536 1.8162536e-38 0.036814634 0.9971242 -0.066242687 0
-0.39922249 -0.011804757 -0.21872778 1.8070341e-38 -0.012498507 0.99988598 -0.0084751397 0
-0.39338598 -0.011733851 -0.21836443 1.7978145e-38 0.014460245 0.99971366 0.01906353 0
-0.38781589 -0.011671407 -0.21893674 1.7978145e-38 -0.021928303 0.99975353 0.0034671118 0
-0.38143253 -0.011793624 -0.21903884 1.7978145e-38 0.023567524 0.99719936 -0.070978738 0
-0.37465122 -0.011599488 -0.2188807 1.8070341e-38 -0.049751662 0.99752766 0.049632665 0
-0.36902386 -0.011530869 -0.2192795 1.7885949e-38 0.012390486 0.99978763 -0.016468996 0
-0.36262095 -0.01179732 -0.21946327 1.7886307e-38 0.032896668 0.99774814 -0.058451701 0
-0.35665986 -0.011685789 -0.21939014 1.7794475e-38 -0.040502131 0.99784994 0.05152702 0
-0.35140169 -0.011571545 -0.21938816 1.7794475e-38 0.033018347 0.99891186 -0.032939594 0
-0.34560397 -0.011734065 -0.21884593 1.7794473e-38 0.020500615 0.99925208 -0.032787174 0
-0.33898738 -0.011730883 -0.21923555 1.7702276e-38 -0.0074537923 0.99991179 0.01099489 0
-0.33321971 -0.011634189 -0.21907093 1.7610081e-38 0.007209667 0.9999072 0.011555834 0
-0.32733822 -0.011827903 -0.21871713 1.7610081e-38 0.065511078 0.98915529 -0.13145418 0
-0.320519 -0.011950391 -0.21896243 1.7517886e-38 -0.011482062 0.99993384 0.00063727237 0
-0.31518778 -0.011662127 -0.2198402 1.7610081e-38 -0.046598766 0.99856061 0.026557455 0
-0.30893022 -0.011574005 -0.21854331 1.7517886e-38 -0.018985083 0.99981976 4.4147982e-05 0
-0.30345917 -0.011617267 -0.21891846 1.7610081e-38 0.0035178277 0.99982804 -0.018206231 0
-0.29690051 -0.011686946 -0.21876052 1.7517886e-38 0.025922265 0.99832892 0.051646888 0
-0.29150239 -0.011928368 -0.2192294 1.7333494e-38 0.074438319 0.99636066 -0.041524962 0
-0.20037802 -0.011951209 -0.21750073 1.7702277e-38 -0.37138999 0.92847705 0 0
-0.1940565 -0.011932148 -0.21804923 1.7610081e-38 -0.081565566 0.9887768 -0.12516992 0
-0.188592 -0.011857541 -0.22006249 1.742569e-38 -0.038907733 0.99885023 0.028009154 0
-0.1840661 -0.011824952 -0.21924844 1.742569e-38 0.12970784 0.98928839 -0.066964775 0
-0.54125142 -0.014275074 -0.21519986 1.6872519e-38 -0.032862402 0.98586124 0.16430992 0
-0.5366863 -0.014452992 -0.21278274 1.705691e-38 -0.015465673 0.99612534 0.086574428 0
-0.53025365 -0.0139636 -0.21239832 1.6964715e-38 -0.062444117 0.9963271 0.058591709 0
-0.52383316 -0.013583896 -0.2126592 1.6964715e-38 -0.055615284 0.99716067 0.050770424 0
-0.5191679 -0.013538062 -0.2136226 1.6872519e-38 0.014247307 0.99813753 0.059316944 0
-0.51275063 -0.013534752 -0.21312235 1.6964715e-38 -0.013757435 0.99737215 0.071130566 0
-0.50674051 -0.01347283 -0.21359502 1.6964715e-38 -0.029321758 0.99952525 0.009457103 0
-0.50108558 -0.013475223 -0.21296431 1.6964712e-38 -0.0093128765 0.99956518 0.02797677 0
-0.49510929 -0.013499603 -0.21259499 1.7056908e-38 0.00059392501 0.99996001 -0.0089182882 0
-0.48925221 -0.013465825 -0.21270373 1.7240939e-38 -0.026722046 0.99795777 0.058019668 0
-0.48332086 -0.013408066 -0.21248972 1.7333494e-38 0.0050426284 0.99758548 0.069266692 0
-0.47732762 -0.01320317 -0.2122068 1.7425331e-38 -0.055460546 0.99819624 0.022986727 0
-0.47105691 -0.0131841 -0.212955 1.7333132e-38 -0.005799294 0.99996561 -0.0059255501 0
-0.46408731 -0.013008782 -0.21261305 1.770156e-38 -0.029284189 0.99786586 0.058362506 0
-0.45906347 -0.013032146 -0.21321392 1.7793754e-38 -0.018573251 0.99964672 0.019010367 0
-0.45330423 -0.012991773 -0.21269211 1.7701558e-38 0.016677486 0.99930787 -0.033252075 0
-0.446881 -0.012821063 -0.21354924 1.7701914e-38 -0.056605924 0.99619991 0.066193216 0
-0.44117594 -0.012787948 -0.21245602 1.7701915e-38 -0.018132918 0.99713206 0.073476046 0
-0.43532157 -0.012457305 -0.21249366 1.6779237e-38 0.026323514 0.99698031 -0.073056579 0
-0.42855573 -0.012562783 -0.21276669 1.078544e-38 -0.013322495 0.99982154 0.013388081 0
-0.42397559 -0.012283113 -0.21208085 1.7701917e-38 -0.13027786 0.98432028 0.11891727 0
-0.41250044 -0.012017322 -0.21450749 1.7978145e-38 -8.1380029e-05 0.99986714 -0.016298596 0
-0.29044527 -0.012052075 -0.21332884 1.742569e-38 0.016653558 0.9998613 -2.166251e-05 0
-0.28440022 -0.01222015 -0.2125954 1.7333494e-38 0.029109474 0.99926555 0.024919081 0
-0.27897513 -0.012473593 -0.21297638 1.7425689e-38 0.05648144 0.99760789 -0.039853599 0
-0.27236363 -0.0128047 -0.21330202 1.7333494e-38 0.033194907 0.99913746 0.024948347 0
-0.26682153 -0.013023864 -0.21302509 1.7333494e-38 0.038060956 0.99927545 5.2216117e-05 0
-0.26130456 -0.013183404 -0.21377547 1.742569e-38 0.037365317 0.99916488 -0.01653507 0
-0.25528836 -0.013448892 -0.21240334 1.742569e-38 0.052052978 0.99863517 -0.0042840475 0
-0.24956836 -0.013278445 -0.2128972 1.7517886e-38 -0.02827649 0.99892581 0.036711521 0
-0.24304843 -0.013364419 -0.21420163 1.7610081e-38 0.026541531 0.99364573 -0.10937887 0
-0.23802647 -0.013260821 -0.2130069 1.7702277e-38 -0.006324097 0.99964857 -0.025743207 0
-0.23106411 -0.013109822 -0.212414 1.7702277e-38 -0.09467563 0.99540055 0.014641833 0
-0.22501273 -0.012523539 -0.21248911 1.7702277e-38 0.057924941 0.98195523 -0.18002379 0
-0.21924515 -0.012627914 -0.2131311 1.7794473e-38 -0.085312091 0.99379283 -0.071397595 0
-0.21296138 -0.012482095 -0.21480519 1.7794473e-38 0.11697302 0.97322947 -0.19784269 0
-0.20730703 -0.012314184 -0.21407089 1.7610081e-38 -0.1285886 0.94702554 -0.29429173 0
-0.2007439 -0.012197981 -0.2159937 1.7794473e-38 -0.37068054 0.92670339 0.061780281 0
-0.19744115 -0.01201974 -0.21017449 1.7610081e-38 -0.033241168 0.99723381 0.066482008 0
-0.18835516 -0.012101583 -0.21395572 1.7517886e-38 0.038031247 0.99923146 -0.0094894599 0
-0.1822378 -0.012149927 -0.21387279 1.7517886e-38 -0.0055430927 0.99923062 0.038826089 0
-0.17822027 -0.012082472 -0.21185397 1.742569e-38 -0.066372894 0.99559462 0.066227488 0
-0.17068961 -0.012492403 -0.21275491 1.7333494e-38 0.07481692 0.99677283 -0.029091092 0
-0.16505906 -0.012608063 -0.21347384 1.7333494e-38 -0.012068037 0.99870592 0.049403593 0
-0.15910256 -0.012756949 -0.21252802 1.7333494e-38 0.092388242 0.99200982 -0.085912772 0
-0.15291478 -0.013128173 -0.2132024 1.6503734e-38 0.011198527 0.99992263 0.0054262062 0
-0.14644364 -0.013120688 -0.21231189 1.4843487e-38 0.037184786 0.99881601 0.031366907 0
-0.14045975 -0.013695694 -0.21302775 1.4198117e-38 0.087865017 0.99577868 -0.02654098 0
-0.13497256 -0.013566475 -0.21405795 1.4289954e-38 -0.040014114 0.99608481 0.078828953 0
-0.12996571 -0.013663512 -0.21287923 1.5949481e-38 0.053945955 0.99814439 -0.028240761 0
-0.12375244 -0.014140111 -0.21279995 1.6502659e-38 0.023711769 0.99835402 -0.052221108 0
-0.11705095 -0.013947525 -0.21237689 1.6964353e-38 -0.022286685 0.99975169 4.1945335e-05 0
-0.11086535 -0.014327692 -0.21318203 1.6872516e-38 0.073522918 0.99509126 -0.066238865 0
-0.10521474 -0.014546396 -0.21203089 1.6779961e-38 0.0083888518 0.99993002 -0.0083384253 0
-0.098988339 -0.014747949 -0.21328525 1.6779602e-38 0.040383462 0.99837178 -0.040286381 0
-0.093166932 -0.015098591 -0.21292341 1.6595929e-38 0.0661956 0.9937526 -0.089854307 0
-0.087831952 -0.015446126 -0.21334089 1.6595929e-38 -0.013949895 0.99806368 -0.06061504 0
-0.080763519 -0.014686721 -0.21255668 1.6503734e-38 -0.01922942 0.9963395 -0.083293632 0
-0.075300686 -0.01474304 -0.21356937 1.641154e-38 -0.085042961 0.99583369 -0.032905862 0
-0.070520394 -0.016010374 -0.21368501 1.6411537e-38 0.31991398 0.94610739 -0.050355941 0
-0.42362791 -0.011860649 -0.21447012 1.7794114e-38 -0.06615717 0.99562806 0.065939218 0
-0.41741398 -0.011770511 -0.21318975 1.7885949e-38 4.8806498e-05 0.99992532 -0.012221815 0
-0.41046911 -0.011744094 -0.21305104 1.8070341e-38 0.00024009454 0.99970782 -0.024169961 0
-0.40515363 -0.011771511 -0.21197838 1.7978145e-38 -0.028696204 0.99944568 0.016874135 0
-0.39862251 -0.0114909 -0.21259284 1.8070341e-38 -0.0039179823 0.99964285 0.026437303 0
-0.39268234 -0.011680916 -0.21297967 1.8070341e-38 0.041422244 0.99746621 -0.057838924 0
-0.38701844 -0.011818661 -0.21271956 1.7885949e-38 -0.051656559 0.99802482 0.035750523 0
-0.38061672 -0.011514053 -0.21271576 1.7978145e-38 -0.0046728468 0.99907827 0.042670697 0
-0.37508038 -0.011526793 -0.21281146 1.7885949e-38 5.9779823e-06 0.99944681 -0.033257972 0
-0.36869702 -0.011760111 -0.21231242 1.7885949e-38 0.028064938 0.99871039 -0.042306688 0
-0.36278507 -0.011486606 -0.21330272 1.7885949e-38 -0.027089948 0.99742246 0.066442251 0
-0.35760286 -0.011550971 -0.21306619 1.7794474e-38 0.0046842908 0.99926859 -0.037952069 0
-0.35164586 -0.011621579 -0.21299483 1.7794474e-38 0.029227436 0.99852002 -0.045864508 0
-0.34573656 -0.011679848 -0.21223843 1.7794473e-38 -0.01452201 0.99988699 -0.0039060717 0
-0.3391386 -0.011593373 -0.21309179 1.7610081e-38 -0.018550854 0.99972206 -0.014547448 0
-0.33357188 -0.011801822 -0.21330084 1.7517886e-38 0.028499894 0.99904406 -0.033148918 0
-0.32741186 -0.011769913 -0.21400586 1.7517886e-38 -0.029126123 0.99852926 0.045727041 0
-0.32102066 -0.01178776 -0.21232451 1.7702277e-38 -0.020837756 0.99970388 0.012568436 0
-0.3146151 -0.011757222 -0.21322894 1.7517886e-38 -0.012374271 0.99927461 -0.036015939 0
-0.30888337 -0.011597957 -0.21297941 1.7610081e-38 -0.037994191 0.99887091 0.028518526 0
-0.3024978 -0.011403837 -0.21236154 1.7610081e-38 -0.012586096 0.99978131 0.016700592 0
-0.29756337 -0.011658931 -0.21301827 1.7517886e-38 0.089412786 0.99237686 -0.08481548 0
-0.29183486 -0.011937949 -0.21286578 1.7517884e-38 0.019957298 0.99971277 -0.013271117 0
-0.28645331 -0.011984693 -0.21508846 1.7333494e-38 0.13102324 0.98268288 -0.1310239 0
-0.21152498 -0.011550618 -0.21160457 1.7886668e-38 -0.0162267 0.99646693 -0.082403861 0
-0.20720136 -0.011708419 -0.21223377 1.7794473e-38 0.032805469 0.98490626 -0.16995144 0
-0.20075959 -0.011833326 -0.21304488 1.7610081e-38 0.01676318 0.99968082 -0.018898612 0
-0.19515145 -0.011791397 -0.21315069 1.7610081e-38 0.020851921 0.99970496 0.012453252 0
-0.19017115 -0.011957832 -0.21211863 1.7610081e-38 0.066290297 0.99435562 -0.08284007 0
-0.17570518 -0.011972445 -0.21159251 1.7333494e-38 0.033124201 0.99847364 -0.044193916 0
-0.53503042 -0.014713846 -0.20695755 1.6964715e-38 0.0165838 0.99955213 0.02490999 0
-0.53122032 -0.014515772 -0.20609388 1.6872519e-38 -0.11119734 0.99117541 0.072155863 0
-0.5252353 -0.014027271 -0.20741196 1.7056909e-38 -0.025830442 0.99814773 0.055080079 0
-0.51899248 -0.01384357 -0.20710228 1.6964715e-38 -0.021678759 0.99900842 0.038887586 0
-0.51278341 -0.013732669 -0.20693767 1.6964715e-38 0.033382919 0.99889195 0.033173028 0
-0.50756079 -0.013833148 -0.20678757 1.705691e-38 -3.7659854e-07 0.99995464 -0.0095249414 0
-0.50098407 -0.013782683 -0.20701247 1.705691e-38 -0.028548794 0.99809688 0.054659884 0
-0.4946382 -0.013572489 -0.20763852 1.7241297e-38 -0.046642818 0.99608052 0.075153552 0
-0.48949638 -0.013602731 -0.20724489 1.7241299e-38 0.048950382 0.99876583 0.0084035266 0
-0.48315555 -0.013556422 -0.20620641 1.7517886e-38 -0.054423597 0.99745727 -0.046012789 0
-0.47668692 -0.013539239 -0.20677024 1.7517886e-38 -0.051648896 0.99845994 0.020253005 0
-0.47108561 -0.01322351 -0.20632468 1.7609363e-38 -0.032286115 0.99739289 0.064536683 0
-0.46500808 -0.01321362 -0.20670728 1.742569e-38 0.017318629 0.99965113 0.019942183 0
-0.45881298 -0.013329806 -0.2068456 1.7793754e-38 -0.028994409 0.99954772 0.0079760496 0
-0.45329913 -0.013083794 -0.20719321 1.7701558e-38 -0.093563519 0.99171287 0.088042669 0
-0.44650984 -0.012909285 -0.20654106 1.7793752e-38 -0.0090668006 0.99984348 0.015192495 0
-0.44067794 -0.013014211 -0.2072484 1.7701558e-38 -0.016681742 0.99943775 -0.029084699 0
-0.43486845 -0.012871118 -0.20685183 1.7517165e-38 -0.065484151 0.99573576 0.064977325 0
-0.42949054 -0.012396459 -0.20758887 1.1799587e-38 -0.014368827 0.99979174 0.014494058 0
-0.42310452 -0.012230005 -0.20671196 1.6503014e-38 -0.058166068 0.99816465 -0.016853848 0
-0.41790357 -0.012081701 -0.20794985 1.7885949e-38 -0.033246763 0.99820906 0.049733169 0
-0.32294708 -0.012055295 -0.20878445 1.7702277e-38 0.099502869 0.99503732 0 0
-0.28831297 -0.012030673 -0.20885909 1.7517883e-38 0.09944915 0.99449033 -0.033149555 0
-0.28435421 -0.012202322 -0.20769073 1.742569e-38 0.061632898 0.9967404 -0.052057367 0
-0.27880502 -0.012446393 -0.20576994 1.7333494e-38 0.05958721 0.99813223 0.013474379 0
-0.27323765 -0.012599491 -0.206784 1.7425689e-38 0.04064298 0.99906492 -0.014743074 0
-0.26620066 -0.013041957 -0.20697837 1.7241299e-38 0.060129941 0.99764991 -0.032851029 0
-0.26031622 -0.013104384 -0.20736785 1.742569e-38 -0.0047186138 0.99981254 -0.018777782 0
-0.25496534 -0.01314595 -0.20704679 1.7425689e-38 0.03240383 0.99288374 -0.1145941 0
-0.24966954 -0.013367046 -0.20763378 1.742569e-38 0.0019562272 0.99628425 -0.08610379 0
-0.24345972 -0.013192797 -0.2069591 1.7610081e-38 -0.11741621 0.99050164 -0.071554631 0
-0.23674527 -0.012793713 -0.20795165 1.7610081e-38 0.022277817 0.94886315 -0.31490064 0
-0.23054314 -0.012688221 -0.20789 1.7886668e-38 -0.039588854 0.97681117 -0.21041076 0
-0.22587091 -0.01230621 -0.20780246 1.7886668e-38 -0.36943012 0.92357737 0.10259707 0
-0.19874264 -0.012020154 -0.20906898 1.7794473e-38 0.033310257 0.99930632 -0.016650509 0
-0.19471282 -0.012067178 -0.20678182 1.7610081e-38 0.0066620177 0.99997777 -1.4787435e-05 0
-0.19074374 -0.012014353 -0.20540659 1.7609363e-38 -0.033241168 0.99723381 0.066482008 0
-0.18265492 -0.012171662 -0.20781036 1.7702277e-38 0.093836553 0.99405944 -0.055140473 0
-0.17698129 -0.012404284 -0.20604423 1.7517526e-38 -0.018175123 0.99830723 0.055247337 0
-0.17128702 -0.012151836 -0.20804025 1.7517884e-38 0.071706817 0.99718601 -0.021866856 0
-0.16581653 -0.012757233 -0.20704742 1.6134588e-38 0.11147755 0.99307233 -0.037149683 0
-0.15888588 -0.012841103 -0.20698714 1.5765446e-38 -0.033154476 0.99600178 0.082953013 0
-0.1526491 -0.013133609 -0.2070009 1.5028239e-38 0.13188653 0.98941821 -0.060477916 0
-0.14706396 -0.013498793 -0.20743281 1.4659097e-38 -0.038127024 0.99346483 0.10758246 0
-0.14055663 -0.013462598 -0.20704001 1.6503374e-38 0.046041615 0.99878567 -0.017534642 0
-0.13623039 -0.013605826 -0.20694762 1.6779603e-38 0.084394544 0.99392718 -0.070614323 0
-0.12906362 -0.013635814 -0.20752321 1.6964355e-38 -0.0051681707 0.99990547 0.012742317 0
-0.12281921 -0.013825814 -0.20627928 1.7148387e-38 0.030470071 0.99870443 -0.040757153 0
-0.11747128 -0.013917904 -0.20717175 1.6964355e-38 -0.011071926 0.99840003 -0.05545146 0
-0.11130995 -0.013951137 -0.20690763 1.6872516e-38 0.024937198 0.99913698 -0.033219948 0
-0.10475363 -0.014338522 -0.20661572 1.6872516e-38 0.10793442 0.9909361 -0.079974279 0
-0.09877985 -0.01449926 -0.2068536 1.6688125e-38 -0.008316407 0.99954081 -0.029138025 0
-0.093276858 -0.014606097 -0.20735866 1.6595929e-38 0.049741995 0.9975276 -0.049642149 0
-0.087248668 -0.015207808 -0.20733285 1.6595928e-38 0.014837246 0.99790674 -0.062944055 0
-0.079911537 -0.014421824 -0.2071079 1.6503735e-38 0.023208173 0.99779445 -0.062189858 0
-0.074021712 -0.014649069 -0.20766166 1.6503735e-38 0.31674477 0.94700247 -0.05347142 0
-0.069958054 -0.016415851 -0.20698307 1.6503734e-38 0.072586626 0.99654514 -0.040360309 0
-0.41579533 -0.011481221 -0.20580395 1.7886308e-38 -0.17678268 0.97436225 -0.13916193 0
-0.41129318 -0.011010814 -0.20631523 1.7978145e-38 -0.049206942 0.97168618 -0.23109445 0
-0.40509358 -0.01073101 -0.20562063 1.7978145e-38 -0.040710833 0.97072023 -0.23673782 0
-0.39900005 -0.010874965 -0.2068405 1.7978145e-38 -0.03569296 0.95182884 -0.30454522 0
-0.39234853 -0.010823634 -0.2061968 1.8070341e-38 0.00026113505 0.96882707 -0.24773768 0
-0.38693109 -0.01104977 -0.20627311 1.8070341e-38 0.10548645 0.98688453 -0.12219438 0
-0.38105634 -0.010940014 -0.2064769 1.7978145e-38 0.03014778 0.9653396 -0.25925002 0
-0.37553692 -0.011427683 -0.20688407 1.788631e-38 0.01386754 0.99156529 -0.12886395 0
-0.36938998 -0.011241726 -0.20696422 1.7978145e-38 -0.023741664 0.99752349 -0.066206113 0
-0.36287522 -0.01141411 -0.20702872 1.7978145e-38 0.080608502 0.97712731 -0.19678544 0
-0.3570464 -0.011543314 -0.20623451 1.7794831e-38 0.057666611 0.98496681 -0.16283394 0
-0.35100824 -0.01143987 -0.20702696 1.7794473e-38 -0.011288321 0.99992841 0.0039529982 0
-0.34537607 -0.011474499 -0.20608439 1.7702277e-38 0.018960636 0.99909627 -0.03804189 0
-0.33920315 -0.011664912 -0.20770605 1.7610081e-38 0.023786031 0.99967182 0.0095154373 0
-0.33335567 -0.011615249 -0.20668745 1.7702277e-38 -0.00023290007 0.99945354 -0.033054262 0
-0.32780516 -0.011608885 -0.20689224 1.7702277e-38 0.036872819 0.9984979 -0.040525194 0
-0.32009378 -0.011805635 -0.20654647 1.7702277e-38 0.0040236749 0.99944097 -0.033190999 0
-0.31485182 -0.011583799 -0.20641139 1.7702277e-38 -0.045500685 0.99772412 0.049762167 0
-0.30860186 -0.011532865 -0.2069138 1.7517886e-38 -0.0042082244 0.99995625 -0.0083559165 0
-0.30261695 -0.01158847 -0.20643504 1.7517886e-38 0.016749213 0.99983597 -0.0068963883 0
-0.2970632 -0.011533367 -0.20657213 1.7517886e-38 -0.014231789 0.9997173 0.019044803 0
-0.29118821 -0.011645845 -0.20640467 1.742569e-38 0.019021295 0.99980783 -0.0047448869 0
-0.28610629 -0.011860783 -0.20534058 1.742569e-38 0.092599325 0.99254781 -0.079209805 0
-0.23612118 -0.011724235 -0.20522815 1.7517886e-38 -0.19611573 0.98058081 0 0
-0.23044661 -0.011550126 -0.20522007 1.7886668e-38 0 0.9718731 -0.23550519 0
-0.2239773 -0.011464654 -0.20605972 1.7794473e-38 0.04615435 0.99844897 -0.031135032 0
-0.2188687 -0.01137439 -0.20686592 1.7794473e-38 0.034097414 0.99865216 -0.039129268 0
-0.21354833 -0.011741406 -0.20766646 1.7794473e-38 -0.026445368 0.99721175 -0.069781482 0
-0.20710708 -0.011643723 -0.20686455 1.7794473e-38 -0.011075536 0.99938494 0.03327081 0
-0.20072137 -0.011646845 -0.20576127 1.7702277e-38 0.055591639 0.99789691 -0.033335563 0
-0.19609231 -0.011930695 -0.20652793 1.7610081e-38 0.066229209 0.99694937 -0.041298267 0
-0.18855743 -0.011899796 -0.20783246 1.7610081e-38 -0.022294642 0.99973547 0.0056523732 0
-0.18513145 -0.011858977 -0.20601372 1.742569e-38 0.055172674 0.99792749 -0.033118002 0
-0.5345943 -0.014876784 -0.20301078 1.6780324e-38 0.13081563 0.98110402 -0.14255629 0
-0.52993482 -0.014847993 -0.20170312 1.705691e-38 -0.041541941 0.99702644 0.064903237 0
-0.52491677 -0.014485252 -0.20054714 1.6964715e-38 -0.084762104 0.99319565 0.079861633 0
-0.51916599 -0.014021675 -0.20055 1.7149106e-38 -0.075428762 0.99431092 0.07520844 0
-0.51315093 -0.013815864 -0.20114061 1.7149106e-38 0.0047704154 0.99998862 -5.1874704e-06 0
-0.50762731 -0.013901644 -0.20118184 1.7149106e-38 0.016610635 0.99972171 0.016749168 0
-0.50077486 -0.013974075 -0.20045111 1.72413e-38 0.0069798199 0.99931782 0.036265772 0
-0.49505264 -0.013820768 -0.2007309 1.7241297e-38 -0.037754569 0.99927795 0.00426109 0
-0.49003106 -0.013810633 -0.20104156 1.7425687e-38 -0.0094323019 0.99985498 0.014180039 0
-0.48284119 -0.013647712 -0.20159706 1.742569e-38 -0.00687744 0.9946999 0.10259059 0
-0.47690108 -0.01353257 -0.20117773 1.761008e-38 -0.031401005 0.99736321 0.065426417 0
-0.47086987 -0.013461973 -0.20112966 1.7610081e-38 0.0081237759 0.99958277 0.027718933 0
-0.46517938 -0.013499733 -0.19998138 1.7609723e-38 0.00098808249 0.99986321 0.016508726 0
-0.45905307 -0.013332027 -0.20022567 1.7793754e-38 -0.017450195 0.99750596 0.068390235 0
-0.45234945 -0.013219635 -0.20040351 1.7793754e-38 -0.013682215 0.99981481 0.013527532 0
-0.44681367 -0.013206122 -0.20118348 1.7701558e-38 -0.018809324 0.99942762 0.028119944 0
-0.43968624 -0.012852029 -0.20141326 1.7793754e-38 -0.052125439 0.99808806 0.033214595 0
-0.43502691 -0.012692891 -0.20058708 1.7701917e-38 -0.041457783 0.99827641 -0.041538402 0
-0.4301067 -0.012497669 -0.20133404 1.6318619e-38 -0.095873989 0.98114336 -0.16782714 0
-0.42337951 -0.01229288 -0.20189741 1.2445321e-38 -0.099562921 0.99266422 -0.068593562 0
-0.28534073 -0.012059705 -0.1981867 1.7702277e-38 0.099448174 0.99449039 0.033149723 0
-0.27970847 -0.012224056 -0.20127381 1.7241299e-38 0.08032681 0.99606293 -0.037499029 0
-0.27344438 -0.012696451 -0.20065846 1.7333494e-38 0.051144339 0.99803054 -0.036324367 0
-0.26686588 -0.012780355 -0.2008172 1.7333494e-38 0.0081803966 0.99996656 0.00012685849 0
-0.26174819 -0.01299766 -0.20111981 1.742569e-38 0.023950385 0.98910993 -0.14521678 0
-0.25542772 -0.012482389 -0.20078011 1.7333494e-38 -0.081690468 0.99272221 -0.088482901 0
-0.24932957 -0.012155399 -0.20209624 1.7333494e-38 -0.0075262589 0.96620619 -0.25766048 0
-0.24303865 -0.012186773 -0.20337096 1.7702277e-38 -0.029801356 0.89403039 -0.44701406 0
-0.22440684 -0.012023224 -0.20338152 1.7886668e-38 0 0.93887657 -0.34425405 0
-0.20560731 -0.012010954 -0.20319466 1.7794473e-38 -0.033023257 0.99068731 0.13209145 0
-0.20262861 -0.012027804 -0.2003506 1.779447e-38 -0.099014387 0.99014759 0.099014387 0
-0.1925163 -0.012094237 -0.20335972 1.7517886e-38 0.066482335 0.99723375 -0.033241004 0
-0.18857405 -0.012132339 -0.20096682 1.7794114e-38 8.385408e-05 0.99887186 0.047486648 0
-0.18255205 -0.01219813 -0.20062722 1.6595568e-38 0.033116773 0.9978177 0.057123676 0
-0.17670301 -0.012578052 -0.19982387 1.4567261e-38 0.1059946 0.99436671 5.0583472e-05 0
-0.17095166 -0.012543584 -0.20197901 1.5120076e-38 -0.051306617 0.99299532 0.10643329 0
-0.16477792 -0.012819405 -0.2016139 1.4659097e-38 0.080418542 0.99634737 0.028719675 0
-0.15951261 -0.013213907 -0.20133378 1.6318621e-38 0.03786467 0.99927276 -0.0044941707 0
-0.15328754 -0.013017206 -0.20178907 1.6963993e-38 -0.0048245215 0.99957871 0.028618364 0
-0.14731957 -0.013422771 -0.20109768 1.7149106e-38 0.080015346 0.99654084 -0.022446645 0
-0.14142667 -0.013533946 -0.20120165 1.7056909e-38 -0.01594286 0.99963087 0.022000263 0
-0.13490273 -0.013497551 -0.20103534 1.7148746e-38 0.044640597 0.99776572 -0.049708128 0
-0.13040143 -0.013709509 -0.20118682 1.705691e-38 -6.3036015e-05 0.99973822 -0.022879848 0
-0.12247115 -0.013542479 -0.20093326 1.6964355e-38 -0.025854845 0.99675423 -0.076239653 0
-0.11748641 -0.013609523 -0.20118584 1.7056549e-38 0.042409204 0.99430758 -0.097744629 0
-0.11066876 -0.013607981 -0.20009677 1.6964712e-38 -0.0006088927 0.99737465 -0.072410896 0
-0.10577953 -0.013772759 -0.2009666 1.6872516e-38 0.073068395 0.9942835 -0.077854075 0
-0.09857817 -0.014339278 -0.20073751 1.6780321e-38 0.055258688 0.99749434 -0.044175185 0
-0.092224069 -0.014535853 -0.20076197 1.6780319e-38 0.0036440024 0.99999344 3.2427462e-05 0
-0.086561322 -0.01475401 -0.20128319 1.6688124e-38 0.070716821 0.99530739 -0.066047646 0
-0.081375696 -0.014687427 -0.20130713 1.6503735e-38 -0.1254838 0.99197698 0.015346489 0
-0.074290507 -0.01371641 -0.20107929 1.6503734e-38 0.094787277 0.99340332 -0.064538471 0
-0.069006436 -0.015825065 -0.20165141 1.6503734e-38 -0.020073041 0.99888247 -0.042789761 0
-0.42766213 -0.011646447 -0.19970536 1.1430079e-38 -0.21164984 0.97348875 -0.086740591 0
-0.42113796 -0.011793122 -0.19919959 1.4382154e-38 0.010848272 0.95853627 -0.28476405 0
-0.41686407 -0.011043711 -0.20120785 1.7885949e-38 -0.32844874 0.94384426 -0.035768736 0
-0.41141039 -0.010310514 -0.20021591 1.7885949e-38 -0.02388354 0.99848861 0.049497999 0
-0.40403602 -0.010397969 -0.20053254 1.7978145e-38 0.03538603 0.9975518 -0.060317278 0
-0.39946079 -0.010432012 -0.2001701 1.8070341e-38 -0.038123444 0.99479997 0.094443619 0
-0.39342999 -0.01031604 -0.20109048 1.7978145e-38 0.014225514 0.99977827 0.015525829 0
-0.38751119 -0.010570511 -0.20096269 1.7885949e-38 0.070665441 0.99448675 -0.077476107 0
-0.38099936 -0.010498188 -0.20086932 1.7978145e-38 -0.081078373 0.99502993 0.057807818 0
-0.37536797 -0.010458516 -0.20095107 1.7978504e-38 0.056332678 0.99448103 -0.088510759 0
-0.3686561 -0.010522034 -0.20116629 1.7885949e-38 0.028982617 0.99295098 -0.11492792 0
-0.36275789 -0.010634148 -0.20147841 1.7885949e-38 -0.093221895 0.9944371 -0.049035471 0
-0.35733619 -0.010582073 -0.20051184 1.7794473e-38 0.080447204 0.99641836 -0.026055366 0
-0.35156098 -0.010845605 -0.20037794 1.7794473e-38 0.038196199 0.98026872 -0.19394438 0
-0.34480929 -0.011128633 -0.20066476 1.7610081e-38 -0.042938732 0.9969672 -0.064906172 0
-0.33908686 -0.011146856 -0.20114379 1.7610081e-38 0.027302658 0.99182636 -0.12464006 0
-0.33311737 -0.011386327 -0.20074938 1.7610081e-38 0.061732169 0.9950211 -0.078244403 0
-0.32771516 -0.011579264 -0.20031199 1.7702277e-38 0.020468431 0.99834299 -0.053781237 0
-0.3218767 -0.011558285 -0.201012 1.7794473e-38 -0.024898294 0.9996109 -0.012579012 0
-0.31446844 -0.011645332 -0.20110658 1.7610081e-38 0.043113768 0.9959017 -0.079504639 0
-0.3082557 -0.01159715 -0.20091875 1.7517886e-38 -0.056986492 0.99832779 -0.0096981646 0
-0.30372685 -0.011427221 -0.19980767 1.742569e-38 -0.0066417232 0.99989033 0.013235639 0
-0.29811096 -0.011413465 -0.20053828 1.742569e-38 -8.6875167e-05 0.99989682 -0.01436546 0
-0.29171219 -0.011782114 -0.20084769 1.7517886e-38 0.049856704 0.99869448 -0.011125909 0
-0.28512278 -0.011891488 -0.20004982 1.742569e-38 0.0083371913 0.99827671 0.05808663 0
-0.2479084 -0.011768469 -0.19975422 1.7425689e-38 -0.1303716 0.98755288 0.087991677 0
-0.24310666 -0.011628343 -0.19947319 1.7610081e-38 0.033104993 0.99890071 -0.033187263 0
-0.2370999 -0.011720503 -0.2008353 1.7702277e-38 -0.0083612939 0.99988204 0.012883467 0
-0.23040813 -0.011498147 -0.20141715 1.7794473e-38 -0.040608063 0.99862665 0.033102587 0
-0.224787 -0.011609761 -0.20075932 1.7794473e-38 0.0032693855 0.99927443 -0.037945628 0
-0.2191097 -0.011621484 -0.20198452 1.7886668e-38 -0.038584121 0.99483794 0.093854733 0
-0.2128934 -0.01153598 -0.2018906 1.7794473e-38 7.0815389e-05 1 -4.9886432e-05 0
-0.20676705 -0.011776144 -0.19965546 1.7794473e-38 0.089881301 0.99405062 -0.061519705 0
-0.20001453 -0.011776621 -0.20024221 1.7702277e-38 -0.093495369 0.99012119 0.10449283 0
-0.1950987 -0.011747321 -0.19989923 1.76108e-38 0.058368452 0.99828607 -0.0042465539 0
-0.18704361 -0.011958199 -0.20329766 1.7517886e-38 -0.033296235 0.99889082 0.033296235 0
-0.18302295 -0.011938984 -0.20214202 1.7517884e-38 0.033310253 0.99930632 0.016650425 0
-0.5295487 -0.014706482 -0.19618174 1.7241302e-38 0.039962068 0.99863237 -0.033711836 0
-0.52419746 -0.01484515 -0.1945817 1.7149106e-38 -0.053909745 0.99614656 0.069178708 0
-0.51888776 -0.014236844 -0.19461116 1.7241302e-38 -0.055480879 0.99809951 0.026819071 0
-0.51333499 -0.01411213 -0.19548841 1.7241302e-38 -0.049213994 0.99466491 0.090662062 0
-0.5073396 -0.014000754 -0.19525065 1.72413e-38 -0.0064095892 0.99919474 0.039609388 0
-0.50105667 -0.013919041 -0.19398642 1.7333494e-38 0.05989312 0.98892707 -0.1357791 0
-0.49501032 -0.014076072 -0.19476643 1.7333494e-38 0.012544309 0.99978048 -0.016782133 0
-0.48903126 -0.014101099 -0.19464505 1.742569e-38 -0.053534821 0.99036193 0.12773885 0
-0.48360333 -0.013825435 -0.19539914 1.7517886e-38 6.2690822e-05 0.99975455 0.022153884 0
-0.47699168 -0.013897594 -0.19550103 1.7517886e-38 0.02938392 0.99924767 -0.025313009 0
-0.47087616 -0.013719046 -0.19502871 1.7610081e-38 -0.055891279 0.99405718 0.093415976 0
-0.46449652 -0.013424175 -0.19526291 1.7610081e-38 -0.033408567 0.99890852 0.032644406 0
-0.4594115 -0.013492352 -0.19514471 1.7701558e-38 0.01247285 0.9990443 -0.041890662 0
-0.45287776 -0.013534068 -0.1950108 1.7793754e-38 -0.051047496 0.99869269 0.0026545618 0
-0.44700766 -0.013241872 -0.19491005 1.7793754e-38 -0.12187465 0.98627603 0.11138292 0
-0.44188946 -0.012725076 -0.19492483 1.7793754e-38 -0.065930575 0.99781895 0.0032199132 0
-0.43495348 -0.012369347 -0.19462186 1.7794112e-38 0.011011911 0.988267 -0.15233909 0
-0.43106341 -0.012302016 -0.19463016 1.7702634e-38 -0.13168375 0.97636282 -0.17139129 0
-0.28364551 -0.012023414 -0.19387968 1.7241299e-38 0.099013902 0.99014765 -0.099014394 0
-0.27954713 -0.012196596 -0.19567148 1.742569e-38 0.011179679 0.99993747 -8.5542859e-05 0
-0.27279928 -0.012389603 -0.19480902 1.742569e-38 0.044233669 0.99846983 -0.033185549 0
-0.26658052 -0.012648969 -0.19565499 1.742569e-38 -0.05762073 0.99707979 -0.050117891 0
-0.25972542 -0.012190021 -0.19571646 1.742569e-38 -0.087121859 0.99550873 -0.03704245 0
-0.25415957 -0.012025967 -0.19585429 1.742569e-38 0.13102451 0.9826827 -0.13102387 0
-0.25172991 -0.012069866 -0.19616525 1.7425689e-38 -0.099381603 0.99382466 -0.04935303 0
-0.21448773 -0.012035738 -0.19362181 1.7702277e-38 -0.044124261 0.99805063 0.044136569 0
-0.20014146 -0.01204613 -0.19553649 1.7702276e-38 0.026682734 0.99964398 -4.0392399e-05 0
-0.19416042 -0.012113471 -0.1936994 1.6595925e-38 -0.022024956 0.99366558 0.11019843 0
-0.1890751 -0.012294282 -0.19508234 1.5212629e-38 0.074705146 0.99650466 0.037383597 0
-0.18219991 -0.01259645 -0.1948512 1.5120435e-38 -0.009474474 0.99670798 0.080519207 0
-0.17788889 -0.012641639 -0.1945238 1.631934e-38 0.014265083 0.99827075 0.057026654 0
-0.17090873 -0.012928527 -0.1951703 1.6411537e-38 0.055485893 0.99821144 -0.022254795 0
-0.16442047 -0.012918082 -0.19471289 1.7425689e-38 -0.018114403 0.99967265 0.018068299 0
-0.15782279 -0.013131302 -0.19495651 1.7333494e-38 0.04524336 0.99752516 -0.053819519 0
-0.15256476 -0.01323842 -0.19494319 1.7241299e-38 0.016646476 0.99979991 -0.011092493 0
-0.14685643 -0.013320714 -0.1953343 1.7149105e-38 0.031705 0.99949348 -0.0027659207 0
-0.14121506 -0.013349143 -0.19520278 1.7149106e-38 -0.055393286 0.99711788 -0.051841974 0
-0.13504203 -0.013120087 -0.19539943 1.7149105e-38 0.032633774 0.99544436 -0.089585103 0
-0.12873046 -0.013311219 -0.19565426 1.7149106e-38 0.021582941 0.98828351 -0.1510957 0
-0.1229949 -0.013300888 -0.19573331 1.705691e-38 -0.014226774 0.99613863 -0.086633481 0
-0.11753429 -0.013180053 -0.19498946 1.7148746e-38 -0.01331684 0.99980521 -0.014568489 0
-0.11088116 -0.013474789 -0.19516768 1.6964712e-38 0.10808275 0.99395901 -0.019068548 0
-0.1057675 -0.013772569 -0.19493148 1.6872516e-38 0.024953464 0.99937654 0.024976391 0
-0.099072732 -0.013964747 -0.19493704 1.6872516e-38 0.046059091 0.99827182 -0.036496859 0
-0.093386047 -0.014399988 -0.19535331 1.6780319e-38 0.049650755 0.99656975 -0.066207722 0
-0.086547442 -0.014384248 -0.19439736 1.6688125e-38 -0.011135283 0.99938577 -0.033227801 0
-0.08034347 -0.014238945 -0.19550107 1.6688125e-38 -0.070414603 0.9949832 -0.071064487 0
-0.074535429 -0.013603722 -0.19477664 1.6595929e-38 0.099309966 0.99505484 0.0018795378 0
-0.069216482 -0.015246483 -0.19482307 1.6780321e-38 0.19597386 0.96849912 -0.15363464 0
-0.43603969 -0.011999865 -0.19306393 1.742569e-38 0.063724734 0.95587933 -0.28676444 0
-0.42854345 -0.011704859 -0.19507527 1.6778879e-38 -0.13536449 0.99011272 0.036785912 0
-0.42328346 -0.01106343 -0.19531994 8.5730992e-39 0.021943221 0.9994747 -0.023848768 0
-0.41673622 -0.010970572 -0.19510843 1.7701558e-38 0.00035841006 0.99972361 -0.023508983 0
-0.41096333 -0.010728592 -0.19597386 1.7885949e-38 -0.10003183 0.97277349 0.20905808 0
-0.40508628 -0.010605824 -0.19461787 1.7885949e-38 -0.055583723 0.99198258 0.11349486 0
-0.3989082 -0.01055618 -0.19533426 1.7978145e-38 0.04806627 0.9986949 -0.0172674 0
-0.39305419 -0.01058834 -0.19459149 1.7978145e-38 0.0017469496 0.99938959 0.034891624 0
-0.38712543 -0.010544346 -0.19525102 1.7885949e-38 0.0077980841 0.99587786 0.090368457 0
-0.38102916 -0.010660667 -0.19499846 1.7885949e-38 0.02399965 0.99964637 0.011452354 0
-0.37431985 -0.010695798 -0.19502768 1.7978145e-38 -0.026462885 0.99958986 0.010943564 0
-0.3684777 -0.010539399 -0.19476278 1.7885949e-38 -0.016131073 0.99705577 0.074963808 0
-0.36295781 -0.010572544 -0.19528882 1.7886308e-38 0.051714521 0.99820167 0.030315293 0
-0.35701331 -0.010659636 -0.19546543 1.7794473e-38 -0.024882436 0.99870819 0.04430306 0
-0.35140789 -0.010587408 -0.19555548 1.7702277e-38 0.0027174691 0.99955922 0.029564392 0
-0.34538543 -0.010551727 -0.19449465 1.7702276e-38 0.0096572014 0.99536842 -0.095647365 0
-0.3392297 -0.01054521 -0.19489649 1.7702277e-38 0.017400233 0.99885798 -0.044497874 0
-0.33365074 -0.010674792 -0.19431682 1.7702277e-38 0.045068882 0.99687189 -0.064924605 0
-0.32721317 -0.010891993 -0.19436541 1.7610081e-38 0.014749023 0.99321401 -0.11536203 0
-0.32209301 -0.010862236 -0.1941618 1.7702277e-38 0.053913411 0.99606603 -0.07032688 0
-0.31505677 -0.0113639 -0.19499077 1.7702277e-38 -0.0090934345 0.99959296 -0.027041573 0
-0.3084645 -0.011318098 -0.1952583 1.7517886e-38 0.0047440361 0.99907684 -0.042696577 0
-0.30271107 -0.011477065 -0.19469084 1.7610081e-38 0.039900552 0.99840438 -0.039959602 0
-0.29708338 -0.011482285 -0.19496454 1.7517886e-38 -0.0037140511 0.99996549 -0.007432011 0
-0.2914826 -0.011548746 -0.19580369 1.7517886e-38 0.041483913 0.99858862 -0.033164747 0
-0.28599 -0.01178822 -0.19428153 1.7610081e-38 0.10676901 0.98661268 -0.12327065 0
-0.2549693 -0.011898419 -0.19350675 1.742569e-38 -0.0083754761 0.99993187 -0.0081298929 0
-0.24860637 -0.011949034 -0.19420478 1.7517886e-38 0.0047617471 0.99997729 0.0047670053 0
-0.24276991 -0.011703812 -0.19480033 1.7517886e-38 -0.066191822 0.99595857 0.060705401 0
-0.23736812 -0.011660053 -0.19536528 1.7702277e-38 0.045730501 0.998402 -0.033197697 0
-0.23093766 -0.011823725 -0.19463328 1.7702277e-38 -0.018518969 0.99982196 0.0036327804 0
-0.22432294 -0.011409511 -0.19570808 1.7886668e-38 0.0071925656 0.99940735 -0.033664376 0
-0.21890512 -0.011737005 -0.19540524 1.7794473e-38 0.07046558 0.99647456 -0.045530703 0
-0.21312094 -0.011677153 -0.19634604 1.7794473e-38 -0.066247717 0.99701768 0.039584149 0
-0.20665579 -0.011645911 -0.19461128 1.7702277e-38 0.036553871 0.99930894 0.0067474856 0
-0.20236135 -0.011857945 -0.19387619 1.6688482e-38 0.077528544 0.99692881 -0.011054469 0
-0.19314101 -0.011944808 -0.19630389 1.6042751e-38 0.049875535 0.99750936 0.049875371 0
-0.52501982 -0.015010938 -0.1890361 1.7425693e-38 0.16948619 0.98243725 -0.078048475 0
-0.51956892 -0.014867837 -0.18899086 1.7425693e-38 -0.11344194 0.98700941 0.11376902 0
-0.51300311 -0.014250095 -0.18911292 1.7333497e-38 -0.036630105 0.99740797 0.06193082 0
-0.50643313 -0.014275724 -0.18906389 1.7333497e-38 -0.051380083 0.99797899 -0.037390009 0
-0.50077993 -0.013651273 -0.19007012 1.7333496e-38 0.026530946 0.98685098 0.15944032 0
-0.49525243 -0.01430198 -0.18858525 1.7333494e-38 -0.12459552 0.98590612 0.1116469 0
-0.48875904 -0.014101002 -0.18874222 1.7333494e-38 0.041316893 0.99860257 -0.032950062 0
-0.48255157 -0.014094949 -0.1889547 1.742569e-38 -0.033072188 0.99938422 -0.011719533 0
-0.47739592 -0.013955097 -0.18912549 1.7517886e-38 -0.02975552 0.9983272 0.049571432 0
-0.47067091 -0.01378861 -0.18881619 1.7610081e-38 -0.022150591 0.99900198 0.038788415 0
-0.46513516 -0.013731178 -0.18957488 1.7610081e-38 -0.029350195 0.99939084 0.018878141 0
-0.45925742 -0.013604656 -0.18905486 1.7701918e-38 -0.074999146 0.99387455 0.081169769 0
-0.45283213 -0.013179 -0.18863417 1.7793754e-38 -0.02247891 0.99945587 0.024136132 0
-0.44685861 -0.013370655 -0.18947388 1.7793754e-38 0.010877718 0.99774724 -0.066197455 0
-0.44121096 -0.012786407 -0.1897945 1.7702277e-38 -0.20185389 0.96379656 -0.17421599 0
-0.43753654 -0.012135656 -0.18916558 1.7702274e-38 -0.066190735 0.99285513 -0.099285141 0
-0.2782363 -0.012127078 -0.18979588 1.742569e-38 0.07857579 0.99412847 -0.074393794 0
-0.27283362 -0.012191951 -0.18932439 1.7425689e-38 -0.052120157 0.99862921 -0.0048267273 0
-0.26709369 -0.012173417 -0.19042088 1.742569e-38 -0.014485555 0.99397576 -0.10863899 0
-0.25984016 -0.012123577 -0.19008338 1.742569e-38 0.044131681 0.99560362 -0.082619637 0
-0.25605938 -0.01210285 -0.18826836 1.7517886e-38 -0.088325255 0.99388552 0.066258788 0
-0.20892739 -0.012077127 -0.18830222 1.6226783e-38 0.033565328 0.99724442 0.066158727 0
-0.2005558 -0.012163254 -0.18888059 1.5304822e-38 0.073015131 0.99677682 0.033240158 0
-0.19557838 -0.012490478 -0.18935052 1.4936044e-38 0.036633395 0.99791938 0.053057149 0
-0.18842195 -0.012504891 -0.18958443 1.7149102e-38 0.024959153 0.99965376 0.0083303712 0
-0.18332304 -0.012716917 -0.18842779 1.7149462e-38 0.061687604 0.99737316 -0.037965976 0
-0.1779085 -0.012893194 -0.18784845 1.7425331e-38 0.0066604903 0.99995565 -0.0066604903 0
-0.17146003 -0.01271563 -0.18900546 1.7333855e-38 3.2922679e-05 0.99994934 -0.010061882 0
-0.16482805 -0.012904816 -0.18940884 1.7425689e-38 -0.0055772108 0.99984562 -0.016657934 0
-0.15798241 -0.012861315 -0.18898432 1.7333494e-38 -0.014771127 0.99978185 -0.014771145 0
-0.15235305 -0.012982011 -0.18876007 1.742569e-38 0.049386576 0.99537838 -0.082357936 0
-0.14666463 -0.01306813 -0.18866695 1.7241299e-38 0.014173575 0.99585855 -0.089805156 0
-0.14100808 -0.012844091 -0.18823202 1.7333496e-38 -0.041364498 0.99809742 -0.045721713 0
-0.13464193 -0.013010345 -0.18911655 1.7241302e-38 0.05812357 0.99726975 -0.045549087 0
-0.128426 -0.013062185 -0.18852952 1.7241302e-38 -0.02910647 0.99852926 0.045739293 0
-0.12311498 -0.013114307 -0.18866317 1.7056909e-38 0.044369221 0.99900001 0.0055086473 0
-0.11740851 -0.013326001 -0.18916151 1.7056908e-38 0.0095533542 0.99990922 0.0095007718 0
-0.11071688 -0.013421884 -0.18907078 1.7149103e-38 0.053437904 0.99856198 0.0042885216 0
-0.10481106 -0.013782357 -0.18916085 1.6964711e-38 0.02510871 0.99912965 -0.033309314 0
-0.098459907 -0.013768862 -0.18919034 1.6964712e-38 0.047015026 0.99836046 -0.032650974 0
-0.093941614 -0.014035845 -0.18956243 1.6872516e-38 0.079384826 0.99629569 -0.033060703 0
-0.08790502 -0.014235845 -0.1892371 1.6780321e-38 0.009985771 0.99981177 -0.016638093 0
-0.080546878 -0.013918412 -0.18901849 1.6872516e-38 -0.060604051 0.99789655 -0.023011396 0
-0.074730456 -0.013517945 -0.18864679 1.6688125e-38 0.043681532 0.99852341 -0.032294329 0
-0.070424788 -0.014460321 -0.18892926 1.6688125e-38 0.20473553 0.97853374 -0.023559382 0
-0.44233528 -0.011795608 -0.18734628 1.761116e-38 0.066190429 0.99285513 -0.099285446 0
-0.43377313 -0.011678101 -0.18893689 1.761008e-38 -0.12402834 0.99120462 0.046157025 0
-0.42875198 -0.011516313 -0.1884141 1.760972e-38 0.0089415526 0.99984425 -0.015215732 0
-0.42338184 -0.011529925 -0.18911546 1.2352403e-38 -0.014556024 0.99908042 0.040327813 0
-0.41696081 -0.011399218 -0.18913454 1.6503014e-38 -0.058750685 0.99405348 0.091685064 0
-0.41077951 -0.011110743 -0.18910316 1.7885949e-38 -0.023680761 0.99943757 0.02374308 0
-0.40537548 -0.011034957 -0.18879087 1.7885949e-38 0.009434727 0.99954623 -0.028607024 0
-0.39863238 -0.010702829 -0.18919893 1.7885949e-38 -0.064403176 0.99650609 0.053177141 0
-0.3928389 -0.010599592 -0.18968336 1.7978145e-38 0.0099854441 0.99974477 0.020265045 0
-0.38750198 -0.01061139 -0.18859927 1.7978145e-38 0.024764797 0.99961209 -0.012738398 0
-0.38096473 -0.010741183 -0.18905407 1.7885949e-38 0.024978828 0.99967939 0.0041582235 0
-0.37666291 -0.010812456 -0.18886621 1.7978145e-38 -0.033273503 0.99909079 0.02665416 0
-0.36982283 -0.010599445 -0.1881461 1.7794473e-38 0.026457233 0.99875802 -0.042218838 0
-0.36299789 -0.010682333 -0.18931925 1.7794114e-38 -0.058572341 0.99810529 0.018841656 0
-0.35706964 -0.010643254 -0.18954723 1.7702277e-38 -0.0027617097 0.99989986 -0.013884935 0
-0.34999871 -0.010687992 -0.18850556 1.7702277e-38 0.0047425944 0.99943805 -0.033184301 0
-0.3450695 -0.01057283 -0.1887918 1.7702276e-38 -0.017548433 0.99957913 0.023100343 0
-0.33906078 -0.010695009 -0.18941052 1.7702276e-38 0.0059916037 0.99777412 0.066415116 0
-0.33358252 -0.010580487 -0.18843658 1.7702277e-38 0.0051143165 0.99969268 -0.024252892 0
-0.32662395 -0.010696608 -0.18808801 1.7702277e-38 0.027804326 0.99936604 -0.022235513 0
-0.32043165 -0.010580822 -0.18908401 1.7702277e-38 -0.068355359 0.99605453 -0.056595426 0
-0.31519002 -0.01057325 -0.18904743 1.7702277e-38 0.083412178 0.98255497 -0.16621716 0
-0.30864874 -0.010694336 -0.18939225 1.742569e-38 -0.0082313297 0.99901044 -0.043708775 0
-0.3037324 -0.010948799 -0.1893962 1.742569e-38 0.029189333 0.9923045 -0.12033179 0
-0.29806426 -0.011134864 -0.18867919 1.742569e-38 0.069602311 0.98832709 -0.1355179 0
-0.29148719 -0.011486331 -0.18931441 1.742569e-38 0.035887409 0.99914372 -0.020586478 0
-0.28471604 -0.011602044 -0.18916936 1.7425692e-38 0.043023061 0.99898934 -0.013012514 0
-0.28040615 -0.01173389 -0.18771377 1.7702277e-38 0.13151965 0.98639387 -0.098639324 0
-0.27075261 -0.011975087 -0.1870615 1.751824e-38 -0.033314869 0.9994449 0 0
-0.26532891 -0.011835944 -0.18704057 1.7333494e-38 -0.033208884 0.99599648 -0.082994975 0
-0.2616733 -0.011932264 -0.18851976 1.742569e-38 0.044201728 0.9968099 -0.066453949 0
-0.2533679 -0.011885446 -0.19019267 1.7333494e-38 -0.019988293 0.99971169 0.013305937 0
-0.24901362 -0.011780968 -0.18793514 1.7333494e-38 -0.020031542 0.99944496 -0.026618155 0
-0.24368621 -0.011884575 -0.18926789 1.7517886e-38 -0.0027626094 0.99968404 -0.024986465 0
-0.23681279 -0.011572735 -0.1898776 1.7702277e-38 -0.038064785 0.99923104 -0.0094018551 0
-0.23083478 -0.011469144 -0.1888178 1.7702277e-38 0.011135168 0.99938738 -0.033180486 0
-0.22541054 -0.011682944 -0.19002816 1.7794473e-38 -0.065732889 0.99662852 0.049100164 0
-0.2185747 -0.011512282 -0.18907659 1.7425689e-38 0.019854249 0.99962074 0.019083941 0
-0.21289845 -0.01180562 -0.18937095 1.6595567e-38 0.033237498 0.99930865 -0.016659666 0
-0.20801349 -0.011836677 -0.18964382 1.6964711e-38 -0.044054862 0.99294162 0.11011893 0
-0.20324416 -0.011897433 -0.19003868 1.4844207e-38 0.055361729 0.99625701 0.066386543 0
-0.52299756 -0.015001233 -0.18550676 1.7425693e-38 0.13102356 0.98268282 -0.1310242 0
-0.51919001 -0.014942333 -0.1825531 1.7333497e-38 0.031480968 0.99920017 -0.024661081 0
-0.5132333 -0.014812521 -0.18341398 1.7333497e-38 -0.032199133 0.99944556 0.0084719406 0
-0.50649679 -0.01453792 -0.18349595 1.7425693e-38 -0.032885615 0.99810708 0.051970948 0
-0.50074291 -0.014447858 -0.18210693 1.7333497e-38 -0.026443588 0.99622345 0.082701452 0
-0.49564534 -0.014361212 -0.18252918 1.7333497e-38 -0.0083879363 0.99272937 -0.12007532 0
-0.48951498 -0.01442078 -0.18324035 1.742569e-38 -0.055498082 0.99642539 0.063689642 0
-0.48371327 -0.014206584 -0.1822459 1.7333494e-38 -0.056956761 0.99625206 0.065097891 0
-0.47696012 -0.014007322 -0.1829568 1.7610081e-38 0.022099253 0.99969494 -0.011029303 0
-0.47123623 -0.014046311 -0.18335284 1.7517886e-38 -0.01861728 0.99965227 0.018676935 0
-0.46508297 -0.013719899 -0.1830674 1.7610081e-38 -0.038037021 0.99902135 -0.022574162 0
-0.45913035 -0.013227956 -0.18277036 1.7701918e-38 -0.23924588 0.96539438 -0.10380282 0
-0.45205635 -0.013086283 -0.1837071 1.7701558e-38 0.045953941 0.94968438 -0.30981901 0
-0.44768694 -0.012666455 -0.18301882 1.7702277e-38 -0.11999708 0.98567265 -0.11853358 0
-0.44359583 -0.012232003 -0.18268785 1.7517886e-38 -0.28141481 0.95066541 -0.13054132 0
-0.43345141 -0.012074295 -0.18392313 1.761008e-38 0.033196025 0.99846435 -0.044351794 0
-0.42925906 -0.012030983 -0.18242951 1.7886668e-38 0 0.9994449 -0.033314873 0
-0.27333313 -0.012108262 -0.1854618 1.7425689e-38 0.021843679 0.9967761 -0.077203229 0
-0.25411442 -0.012052485 -0.183878 1.742569e-38 0.044290114 0.99680609 -0.066453718 0
-0.25111702 -0.01203493 -0.18219027 1.7794111e-38 0.01662272 0.99986184 2.7747474e-05 0
-0.23362511 -0.012154285 -0.18004937 1.7886668e-38 -0.098163128 0.98163009 0.16360439 0
-0.21957569 -0.012148635 -0.1818676 1.4659453e-38 0.039959088 0.99603748 0.079452485 0
-0.21254945 -0.012012798 -0.18107165 1.807106e-38 -0.066190429 0.99285513 0.099285141 0
-0.20680986 -0.012341243 -0.18274595 1.6042391e-38 0.063515037 0.99732357 0.0362138 0
-0.20106784 -0.012416464 -0.18247978 1.7517884e-38 -0.0065406836 0.99904871 0.043113772 0
-0.1951118 -0.012537688 -0.18308465 1.7610081e-38 0.0456734 0.99864489 -0.024948316 0
-0.18899128 -0.012668899 -0.1835973 1.761008e-38 -0.026061418 0.9994083 0.022444233 0
-0.182937 -0.012596323 -0.18232273 1.7517886e-38 0.0042880797 0.99995559 -0.0083974488 0
-0.17718551 -0.012726232 -0.18309358 1.742569e-38 0.033266351 0.99798566 -0.054017946 0
-0.17137142 -0.012699535 -0.18324265 1.742569e-38 -0.018428979 0.99980366 0.0072875964 0
-0.1650051 -0.012654238 -0.18354009 1.742569e-38 0.032808319 0.9950192 -0.094129398 0
-0.15921029 -0.012658228 -0.18241151 1.742569e-38 0.0099521596 0.99729192 -0.072868265 0
-0.15341994 -0.01250554 -0.18248184 1.742569e-38 -0.018968372 0.99941343 -0.028512713 0
-0.14706928 -0.012736729 -0.18281306 1.742569e-38 0.040720373 0.99892414 -0.022191424 0
-0.14192684 -0.012906317 -0.18268524 1.7333496e-38 -0.044363368 0.99876839 0.022215404 0
-0.13559067 -0.012809301 -0.18333322 1.7149106e-38 0.053120445 0.99858296 -0.0032109169 0
-0.12905101 -0.013203132 -0.18272707 1.7333496e-38 0.014822059 0.99989015 1.9468139e-06 0
-0.12272042 -0.013188702 -0.1830502 1.7149102e-38 0.014262243 0.99988699 0.0047575673 0
-0.11709638 -0.013336573 -0.18308057 1.7241297e-38 0.031228444 0.99940675 -0.014520825 0
-0.11084443 -0.013506725 -0.1837981 1.7149103e-38 0.0225327 0.99974531 -0.0012353354 0
-0.10454457 -0.013536594 -0.18206266 1.7056908e-38 0.088589013 0.99515438 -0.042658169 0
-0.099308155 -0.013884217 -0.18386093 1.6964712e-38 0.0034080683 0.99875915 0.049682859 0
-0.09280882 -0.013908138 -0.18350799 1.6964712e-38 -0.020380048 0.99975586 -0.0085354494 0
-0.087229356 -0.014088404 -0.18275513 1.6872516e-38 0.094537482 0.99511766 -0.028346909 0
-0.080965817 -0.013846803 -0.18361367 1.6780321e-38 -0.31774282 0.94703948 -0.046429843 0
-0.074914053 -0.013504345 -0.18301921 1.6780321e-38 0.23218875 0.97241813 0.022165278 0
-0.070218489 -0.014424182 -0.18378802 1.6780321e-38 0.13651495 0.99052864 0.014718872 0
-0.44051298 -0.011894603 -0.18276311 1.7702277e-38 -3.1416262e-06 0.99924529 0.038844593 0
-0.43567187 -0.011907685 -0.18359378 1.7702276e-38 0.0049895761 0.99994677 0.0090345154 0
-0.42864063 -0.011822814 -0.18384984 1.7886668e-38 -0.11459304 0.98363012 0.13906915 0
-0.42296502 -0.011562375 -0.18293512 1.4750571e-38 -0.037878908 0.99888015 0.028349642 0
